<?xml version="1.0"?>
<opencv_storage>
<disp type_id="opencv-matrix">
  <rows>62</rows>
  <cols>384</cols>
  <dt>s</dt>
  <data>
    -16 -16 -16 -16 -16 -16 -16 -16 -16 -16 -16 -16 -16 -16 -16 -16 -16 -16 -16 -16 -16 -16 -16 -16 -16 -16 -16 -16 -16 -16 -16 -16 -16 -16 -16 -16 -16 -16 -16 -16 -16 -16 -16 -16 -16 -16 -16 -16 -16 -16 -16 -16 -16 -16 -16 -16 -16 -16 -16 -16 -16 -16 -16 -16 -16 -16 -16 222 220 221 219 221 220 219 219 224 228 231 229 232 214 216 218 219 221 221 222 221 222 227 229 227 228 226 223 224 226 227 226 -16 -16 -16 -16 292 293 291 290 290 290 289 289 289 290 289 290 290 -16 -16 -16 -16 -16 -16 -16 -16 -16 -16 -16 -16 -16 -16 -16 496 494 493 493 494 498 496 494 500 498 499 499 499 499 497 498 499 494 502 501 502 504 505 505 506 505 505 506 507 507 508 508 509 509 512 513 510 510 512 514 512 513 510 510 509 509 509 510 508 507 507 510 507 506 506 505 504 505 506 506 504 506 506 505 506 506 504 505 504 505 -16 -16 -16 -16 -16 -16 -16 -16 -16 -16 -16 -16 -16 -16 -16 -16 -16 -16 -16 677 678 679 680 681 684 692 696 687 687 687 691 695 681 682 683 684 695 692 682 680 -16 678 -16 -16 -16 -16 -16 -16 -16 -16 -16 -16 -16 -16 699 703 -16 679 679 679 679 679 674 674 -16 -16 -16 -16 -16 663 677 687 700 717 733 -16 -16 741 741 -16 -16 -16 -16 -16 -16 366 367 368 370 371 371 374 374 378 379 378 380 382 382 381 382 382 381 381 381 381 379 378 380 379 378 379 379 380 -16 -16 -16 -16 -16 -16 -16 -16 -16 -16 -16 -16 -16 -16 -16 -16 -16 -16 -16 -16 -16 -16 -16 -16 -16 232 233 233 233 234 233 234 236 238 239 -16 -16 -16 -16 -16 -16 -16 -16 -16 -16 -16 -16 -16 -16 -16 -16 -16 -16 -16 -16 -16 -16 -16 -16 -16 -16 -16 -16 -16 -16 -16 -16 -16 -16
    -16 -16 -16 -16 -16 -16 -16 -16 -16 -16 -16 -16 -16 -16 -16 -16 -16 -16 -16 -16 -16 -16 -16 -16 -16 -16 -16 -16 -16 -16 -16 -16 -16 -16 -16 -16 -16 -16 -16 -16 -16 -16 -16 -16 -16 -16 -16 -16 -16 -16 -16 -16 -16 -16 -16 -16 -16 -16 -16 -16 -16 -16 -16 -16 -16 -16 -16 222 220 223 219 222 219 220 219 227 -16 233 232 232 216 218 222 221 224 225 226 224 225 229 230 228 230 230 226 226 228 229 -16 -16 -16 -16 292 292 292 290 290 289 290 289 289 289 290 290 290 -16 -16 -16 -16 -16 -16 -16 -16 -16 -16 -16 -16 -16 -16 -16 -16 496 -16 493 493 495 498 496 494 500 498 499 499 498 498 497 498 499 494 502 502 502 505 505 505 506 505 505 506 507 507 508 508 509 509 512 512 510 510 511 513 511 512 509 510 510 510 510 510 508 508 507 510 508 507 507 506 505 506 505 506 504 505 504 503 503 503 502 503 502 503 503 -16 -16 -16 -16 -16 -16 -16 -16 -16 -16 -16 -16 -16 -16 -16 -16 -16 -16 -16 671 673 676 681 685 696 -16 692 689 687 688 688 684 682 682 685 685 691 688 682 679 679 -16 -16 -16 -16 -16 -16 -16 -16 -16 -16 -16 700 700 703 -16 -16 679 678 679 679 673 673 -16 -16 -16 -16 649 663 672 682 -16 -16 728 742 742 739 740 -16 -16 -16 -16 -16 -16 366 367 368 370 371 371 374 374 378 378 378 380 381 382 382 382 382 380 381 380 381 379 378 379 378 379 380 379 381 -16 382 -16 -16 -16 -16 -16 -16 -16 -16 -16 -16 -16 -16 -16 -16 -16 -16 -16 -16 -16 -16 -16 -16 -16 -16 230 228 227 222 223 -16 -16 -16 -16 -16 -16 -16 -16 -16 -16 -16 -16 -16 -16 -16 -16 -16 -16 -16 -16 -16 -16 -16 -16 -16 -16 -16 -16 -16 -16 -16 -16 -16 -16 -16 -16 -16 -16
    -16 -16 -16 -16 -16 -16 -16 -16 -16 -16 -16 -16 -16 -16 -16 -16 -16 -16 -16 -16 -16 -16 -16 -16 -16 -16 -16 -16 -16 -16 -16 -16 -16 -16 -16 -16 -16 -16 -16 -16 -16 -16 -16 -16 -16 -16 -16 -16 -16 -16 -16 -16 -16 -16 -16 -16 -16 -16 -16 -16 -16 -16 -16 -16 -16 -16 -16 224 222 227 223 229 229 233 -16 234 236 236 235 235 219 221 225 222 225 226 228 226 226 228 229 228 230 230 227 226 228 230 -16 -16 -16 -16 292 292 291 290 290 289 289 289 289 289 289 290 290 -16 -16 -16 -16 -16 -16 -16 -16 -16 -16 -16 -16 -16 -16 -16 -16 -16 -16 493 494 496 498 496 494 501 498 499 499 498 498 497 498 499 493 502 502 503 505 506 506 506 506 506 506 507 507 508 509 509 510 511 511 510 510 510 512 509 512 509 511 511 510 510 511 509 509 508 510 508 507 507 507 506 506 505 505 503 504 503 502 501 501 500 501 500 501 501 500 498 497 498 499 -16 -16 -16 -16 -16 -16 -16 -16 -16 -16 -16 -16 -16 -16 -16 -16 672 677 -16 697 692 691 687 686 687 687 685 684 683 687 685 693 694 691 683 680 -16 -16 -16 -16 -16 -16 -16 -16 -16 -16 704 702 701 704 -16 -16 678 678 678 678 671 671 -16 -16 645 -16 649 660 666 680 692 707 -16 -16 741 738 740 742 -16 -16 -16 -16 -16 366 367 367 370 371 371 373 374 378 379 379 380 381 383 383 382 382 380 381 380 381 380 379 379 378 379 380 380 382 381 383 385 -16 -16 -16 -16 -16 -16 -16 -16 -16 -16 -16 -16 -16 -16 -16 -16 -16 -16 -16 -16 -16 -16 -16 -16 -16 -16 -16 -16 -16 -16 -16 -16 -16 -16 -16 -16 -16 -16 -16 -16 -16 -16 -16 -16 -16 -16 -16 -16 -16 -16 -16 -16 -16 -16 -16 -16 -16 -16 -16 -16 -16 -16 -16 -16 -16 -16
    -16 -16 -16 -16 -16 -16 -16 -16 -16 -16 -16 -16 -16 -16 -16 -16 -16 -16 -16 -16 -16 -16 -16 -16 -16 -16 -16 -16 -16 -16 -16 -16 -16 -16 -16 -16 -16 -16 -16 -16 -16 -16 -16 -16 -16 -16 -16 -16 -16 -16 -16 -16 -16 -16 -16 -16 -16 -16 -16 -16 -16 -16 -16 -16 -16 -16 -16 228 228 231 231 233 234 235 235 235 236 236 236 235 233 227 228 224 226 228 229 227 227 229 230 228 231 231 228 227 229 231 -16 -16 -16 -16 292 292 290 290 289 289 289 289 289 289 289 290 -16 -16 -16 -16 -16 -16 -16 -16 -16 -16 -16 -16 -16 -16 -16 -16 -16 -16 -16 492 493 495 497 495 495 501 498 498 499 498 498 497 498 499 493 503 502 502 505 506 506 506 506 505 506 506 506 508 508 508 510 510 510 510 509 509 510 509 511 508 510 510 509 509 510 508 509 507 509 508 507 507 507 506 506 505 505 502 503 502 501 500 500 498 499 499 500 499 499 497 496 495 496 496 494 492 -16 -16 -16 -16 -16 -16 -16 -16 -16 -16 -16 -16 -16 -16 -16 -16 -16 -16 691 686 685 685 685 683 683 682 685 683 692 697 695 690 686 683 681 -16 -16 -16 -16 -16 -16 -16 -16 -16 705 702 705 -16 -16 677 677 677 677 671 671 -16 641 643 645 645 649 664 679 686 -16 -16 -16 739 737 739 741 -16 -16 -16 -16 -16 -16 367 368 371 371 372 374 375 380 380 380 381 381 384 383 382 382 380 380 380 381 380 379 379 379 380 381 382 382 382 382 384 385 386 -16 -16 -16 -16 -16 -16 -16 -16 372 370 372 -16 -16 -16 -16 -16 -16 -16 -16 -16 -16 -16 -16 -16 -16 -16 -16 -16 -16 -16 -16 -16 -16 -16 -16 -16 -16 -16 -16 -16 -16 -16 -16 -16 -16 -16 -16 -16 -16 -16 -16 -16 -16 -16 -16 -16 -16 -16 -16 -16 -16 -16 -16 -16
    -16 -16 -16 -16 -16 -16 -16 -16 -16 -16 -16 -16 -16 -16 -16 -16 -16 -16 -16 -16 -16 -16 -16 -16 -16 -16 -16 -16 -16 -16 -16 -16 -16 -16 -16 -16 -16 -16 -16 -16 -16 -16 -16 -16 -16 -16 -16 -16 -16 -16 -16 -16 -16 -16 -16 -16 -16 -16 -16 -16 -16 -16 -16 -16 -16 -16 -16 229 230 232 233 233 235 235 236 236 237 236 236 236 234 230 230 226 228 230 230 228 227 229 230 229 231 232 229 229 231 232 -16 -16 -16 293 293 292 290 290 288 289 288 288 288 288 288 289 -16 -16 -16 -16 -16 -16 -16 -16 -16 -16 -16 -16 -16 -16 -16 -16 -16 -16 -16 491 493 494 497 494 496 502 498 499 500 499 499 497 499 499 493 504 504 503 506 507 506 506 506 505 506 507 506 508 508 508 511 511 510 510 509 509 509 508 510 507 508 508 508 508 509 508 508 507 509 508 506 506 506 505 505 504 504 502 502 502 501 500 500 498 498 498 499 498 497 496 495 494 496 496 495 493 493 -16 -16 -16 -16 -16 -16 -16 -16 -16 -16 -16 -16 -16 -16 -16 -16 -16 685 684 683 685 684 683 683 683 685 684 688 693 688 692 690 687 685 -16 -16 -16 -16 -16 -16 -16 -16 -16 704 702 703 -16 -16 677 677 676 676 670 670 -16 642 642 -16 -16 -16 665 678 681 694 -16 -16 -16 736 737 740 742 -16 -16 -16 -16 -16 367 368 371 371 372 374 377 380 380 380 382 381 383 383 382 381 379 380 379 380 381 379 379 379 381 382 383 383 383 382 383 384 385 383 381 379 380 -16 373 372 372 371 369 371 371 -16 -16 -16 -16 -16 -16 -16 -16 -16 -16 -16 -16 -16 -16 -16 -16 -16 -16 -16 -16 -16 -16 -16 -16 -16 -16 -16 -16 -16 -16 -16 -16 -16 -16 -16 -16 -16 -16 -16 -16 -16 -16 -16 -16 -16 -16 -16 -16 -16 -16 -16 -16
    -16 -16 -16 -16 -16 -16 -16 -16 -16 -16 -16 -16 -16 -16 -16 -16 -16 -16 -16 -16 -16 -16 -16 -16 -16 -16 -16 -16 -16 -16 -16 -16 -16 -16 -16 -16 -16 -16 -16 -16 -16 -16 -16 -16 -16 -16 -16 -16 -16 -16 -16 -16 -16 -16 -16 -16 -16 -16 -16 -16 -16 -16 -16 -16 -16 -16 -16 233 234 235 235 235 236 236 237 236 237 237 237 236 235 232 231 226 228 230 229 228 227 229 229 228 231 231 229 229 230 232 -16 -16 -16 293 293 292 290 289 288 289 288 288 288 288 288 -16 -16 -16 -16 -16 -16 -16 -16 -16 -16 -16 -16 -16 -16 -16 -16 -16 -16 -16 -16 492 494 495 498 494 497 502 498 499 500 499 499 497 500 499 493 505 505 505 507 507 507 506 506 506 507 507 507 508 508 508 511 510 509 509 508 508 509 508 510 506 507 508 508 508 508 507 508 506 508 507 506 505 505 505 505 504 503 502 501 501 501 499 500 497 497 497 498 498 497 496 495 494 496 496 496 493 -16 -16 -16 -16 -16 -16 -16 -16 -16 -16 -16 -16 -16 -16 -16 -16 -16 -16 684 684 683 685 684 683 684 683 684 683 683 686 678 676 -16 681 684 685 683 681 683 691 -16 -16 -16 -16 701 701 701 -16 677 676 676 676 676 672 673 -16 -16 642 -16 -16 -16 667 676 680 691 -16 -16 733 736 736 740 742 743 746 -16 -16 367 368 369 372 372 373 375 377 380 380 380 381 380 383 383 381 381 379 379 379 380 380 379 378 379 380 382 383 383 382 382 383 383 384 382 380 378 379 374 373 372 372 371 368 370 -16 -16 -16 -16 -16 -16 -16 -16 -16 -16 -16 -16 -16 -16 -16 -16 -16 -16 -16 -16 -16 -16 -16 -16 -16 -16 -16 -16 -16 -16 -16 -16 -16 -16 -16 -16 -16 -16 -16 -16 -16 -16 -16 -16 -16 -16 -16 -16 -16 -16 -16 -16 -16
    -16 -16 -16 -16 -16 -16 -16 -16 -16 -16 -16 -16 -16 -16 -16 -16 -16 -16 -16 -16 -16 -16 -16 -16 -16 -16 -16 -16 -16 -16 -16 -16 -16 -16 -16 -16 -16 -16 -16 -16 -16 -16 -16 -16 -16 -16 -16 -16 -16 -16 -16 -16 -16 -16 -16 -16 -16 -16 -16 -16 -16 -16 -16 -16 -16 -16 -16 235 236 236 237 236 237 236 237 236 237 237 237 237 235 233 233 227 229 230 230 228 227 229 229 227 231 231 228 229 229 231 -16 -16 -16 292 293 291 291 289 289 289 288 288 288 287 288 -16 -16 -16 -16 -16 -16 -16 -16 -16 -16 -16 -16 -16 -16 -16 -16 -16 -16 -16 -16 493 495 495 497 494 498 501 498 499 500 499 499 498 500 499 494 505 505 504 507 507 507 507 507 506 507 507 508 508 508 509 511 510 509 509 508 509 509 508 509 506 507 507 507 507 507 507 507 505 508 507 506 505 505 505 505 504 503 502 501 501 502 499 500 497 496 496 497 497 496 495 495 493 496 496 496 493 -16 -16 -16 -16 -16 -16 -16 -16 -16 -16 -16 -16 -16 -16 -16 -16 -16 -16 683 684 683 685 683 682 683 683 684 683 683 684 674 668 675 678 -16 -16 678 679 683 691 698 701 700 -16 702 702 702 -16 678 678 677 677 677 676 676 -16 -16 639 -16 -16 -16 671 674 680 689 -16 -16 731 735 736 740 741 743 744 -16 -16 368 369 369 372 372 374 375 377 380 380 380 381 379 382 383 381 381 379 379 379 379 380 378 377 378 380 381 383 382 382 381 382 382 383 381 379 377 378 373 373 372 372 371 368 370 -16 -16 -16 -16 -16 -16 -16 -16 -16 -16 -16 -16 -16 -16 -16 -16 -16 -16 -16 -16 -16 -16 -16 -16 -16 -16 -16 -16 -16 -16 -16 -16 -16 -16 -16 -16 -16 -16 -16 -16 -16 -16 -16 -16 -16 -16 -16 -16 -16 -16 -16 -16 -16
    -16 -16 -16 -16 -16 -16 -16 -16 -16 -16 -16 -16 -16 -16 -16 -16 -16 -16 -16 -16 -16 -16 -16 -16 -16 -16 -16 -16 -16 -16 -16 -16 -16 -16 -16 -16 -16 -16 -16 -16 -16 -16 -16 -16 -16 -16 -16 -16 -16 -16 -16 -16 -16 -16 -16 -16 -16 -16 -16 -16 -16 -16 -16 -16 -16 -16 -16 236 236 237 238 237 237 236 238 236 237 237 237 237 235 234 234 229 229 231 230 229 228 229 229 226 231 232 229 230 230 -16 -16 -16 -16 292 292 291 291 288 289 289 288 288 288 287 288 -16 -16 -16 -16 -16 -16 -16 -16 -16 -16 -16 -16 -16 -16 -16 -16 -16 -16 -16 -16 492 493 495 497 494 499 501 498 498 499 499 498 498 500 498 495 504 504 504 506 506 507 506 507 506 507 507 507 507 507 509 510 510 509 509 508 509 509 509 509 506 507 507 507 507 507 507 506 505 507 507 506 505 505 505 505 505 504 503 501 500 502 499 500 497 496 496 496 496 495 494 494 492 494 494 495 -16 -16 -16 -16 382 -16 -16 -16 -16 -16 -16 -16 -16 -16 -16 -16 -16 -16 -16 -16 -16 683 685 683 682 683 682 685 688 686 -16 -16 -16 -16 -16 -16 648 650 651 -16 -16 697 -16 -16 696 700 699 700 -16 680 679 679 679 679 679 678 -16 -16 -16 -16 -16 -16 -16 671 679 685 -16 -16 733 737 738 740 742 743 744 -16 -16 368 369 369 372 373 374 375 378 381 381 381 382 380 383 382 381 381 380 379 380 379 381 378 378 378 380 381 382 381 382 381 382 382 382 381 378 377 377 373 372 371 371 371 368 370 -16 -16 -16 -16 -16 -16 -16 -16 -16 -16 -16 -16 -16 -16 -16 -16 -16 -16 -16 -16 -16 -16 -16 -16 -16 -16 -16 -16 -16 -16 -16 -16 -16 -16 -16 -16 -16 -16 -16 -16 -16 -16 -16 -16 -16 -16 -16 -16 -16 -16 -16 -16 -16
    -16 -16 -16 -16 -16 -16 -16 -16 -16 -16 -16 -16 -16 -16 -16 -16 -16 -16 -16 -16 -16 -16 -16 -16 -16 -16 -16 -16 -16 -16 -16 -16 -16 -16 -16 -16 -16 -16 -16 -16 -16 -16 -16 -16 -16 -16 -16 -16 -16 -16 -16 -16 -16 -16 -16 -16 -16 -16 -16 -16 -16 -16 -16 -16 -16 -16 -16 237 237 237 238 237 237 236 238 236 237 237 236 236 235 234 235 229 230 231 230 229 228 229 228 225 231 232 229 -16 -16 -16 -16 -16 -16 292 291 291 290 288 288 288 288 288 287 287 287 -16 -16 -16 -16 -16 -16 -16 -16 -16 -16 -16 -16 -16 -16 -16 -16 -16 -16 -16 490 492 491 494 495 494 500 500 498 498 499 498 498 498 500 498 498 504 504 504 506 506 507 506 507 506 506 507 506 507 507 509 510 510 509 509 509 510 510 509 509 507 506 507 507 507 506 506 506 505 506 507 505 505 505 505 505 505 505 503 501 500 502 499 500 497 496 496 496 495 495 494 493 492 493 494 494 -16 -16 -16 -16 381 -16 -16 -16 -16 -16 -16 -16 -16 -16 -16 -16 -16 -16 -16 -16 -16 684 -16 -16 -16 687 -16 692 697 -16 -16 -16 -16 -16 -16 -16 646 646 647 -16 -16 -16 -16 -16 -16 699 693 696 693 685 683 683 680 682 680 680 -16 681 -16 -16 677 672 -16 669 677 682 -16 -16 732 739 738 740 741 741 -16 -16 -16 367 369 370 373 374 375 376 378 381 381 380 382 380 382 382 381 381 380 380 380 380 381 379 378 378 380 381 382 381 382 380 382 382 382 380 378 376 377 373 372 371 371 370 368 370 370 -16 -16 -16 -16 -16 -16 -16 -16 -16 -16 -16 -16 -16 -16 -16 -16 -16 -16 -16 -16 -16 -16 -16 -16 -16 -16 -16 -16 -16 -16 -16 -16 -16 -16 -16 -16 -16 -16 -16 -16 -16 -16 -16 -16 -16 -16 -16 -16 -16 -16 -16 -16
    -16 -16 -16 -16 -16 -16 -16 -16 -16 -16 -16 -16 -16 -16 -16 -16 -16 -16 -16 -16 -16 -16 -16 -16 -16 -16 -16 -16 -16 -16 -16 -16 -16 -16 -16 -16 -16 -16 -16 -16 -16 -16 -16 -16 -16 -16 -16 -16 -16 -16 -16 -16 -16 -16 -16 -16 -16 -16 -16 -16 -16 -16 -16 -16 -16 -16 -16 237 238 238 239 238 238 237 239 237 238 237 237 237 236 235 236 231 231 232 231 230 229 229 229 225 230 231 228 230 -16 -16 -16 -16 290 291 290 290 289 288 288 288 288 288 287 287 -16 -16 -16 -16 -16 -16 -16 -16 -16 -16 -16 -16 -16 -16 -16 -16 -16 -16 -16 489 491 493 491 494 495 494 500 499 498 498 499 499 497 498 500 497 500 504 504 505 507 506 507 506 506 506 506 506 506 506 507 509 510 510 509 509 509 510 510 509 510 507 506 506 506 506 -16 505 505 502 505 506 505 505 505 504 504 504 504 503 501 500 501 498 499 497 496 496 496 495 496 495 494 492 493 493 494 -16 -16 -16 -16 380 -16 379 378 -16 -16 378 -16 -16 -16 -16 -16 -16 -16 -16 -16 -16 684 -16 -16 -16 -16 -16 687 -16 -16 -16 -16 -16 -16 -16 -16 646 644 646 -16 -16 -16 -16 -16 -16 -16 -16 693 688 689 689 686 683 683 681 681 681 683 683 684 678 674 674 670 676 680 692 708 -16 -16 737 739 739 739 -16 -16 366 367 370 370 373 374 375 376 378 381 381 381 381 380 382 381 381 381 380 379 380 380 381 379 379 379 381 381 382 381 383 380 382 382 381 380 378 376 377 372 372 371 370 370 367 370 369 -16 -16 -16 -16 -16 -16 -16 -16 -16 -16 -16 -16 -16 -16 -16 -16 -16 -16 -16 -16 -16 -16 -16 -16 -16 -16 -16 -16 -16 -16 -16 -16 -16 -16 -16 -16 -16 -16 -16 -16 -16 -16 -16 -16 -16 -16 -16 -16 -16 -16 -16 -16
    -16 -16 -16 -16 -16 -16 -16 -16 -16 -16 -16 -16 -16 -16 -16 -16 -16 -16 -16 -16 -16 -16 -16 -16 -16 -16 -16 -16 -16 -16 -16 -16 -16 -16 -16 -16 -16 -16 -16 -16 -16 -16 -16 -16 -16 -16 -16 -16 -16 -16 -16 -16 -16 -16 -16 -16 -16 -16 -16 -16 -16 -16 -16 -16 -16 -16 -16 238 238 238 239 238 238 237 239 237 238 237 237 237 237 236 237 231 232 232 231 230 229 228 228 224 229 230 228 -16 -16 -16 -16 -16 290 291 290 290 289 288 288 288 288 288 288 288 286 -16 -16 -16 -16 -16 -16 -16 -16 -16 -16 -16 -16 -16 -16 -16 -16 -16 -16 486 490 491 489 493 494 495 501 499 499 499 499 499 498 499 500 497 501 504 504 505 507 507 507 506 506 506 506 506 506 506 508 509 510 510 509 509 509 511 510 509 510 508 506 -16 506 506 -16 505 504 501 503 506 506 506 506 505 505 505 505 505 502 501 502 498 499 497 497 496 496 496 495 495 495 492 493 493 494 -16 -16 -16 -16 380 380 379 378 -16 -16 377 -16 -16 -16 -16 -16 -16 -16 -16 -16 -16 684 -16 -16 -16 -16 -16 -16 -16 -16 -16 -16 -16 -16 -16 -16 -16 -16 647 -16 -16 -16 -16 -16 -16 -16 -16 -16 -16 -16 -16 -16 685 683 678 676 681 683 682 682 677 673 -16 669 672 679 686 696 -16 -16 -16 -16 -16 737 -16 -16 367 368 370 370 372 374 375 377 379 382 382 381 382 380 382 381 382 381 380 379 380 380 382 380 380 379 381 381 382 381 382 380 381 381 381 381 377 376 377 372 371 370 370 370 367 369 369 -16 -16 -16 -16 239 -16 -16 -16 -16 -16 -16 -16 -16 -16 -16 -16 -16 -16 -16 -16 -16 -16 -16 -16 -16 -16 -16 236 -16 -16 -16 -16 -16 -16 -16 -16 -16 -16 -16 -16 -16 -16 -16 -16 -16 -16 -16 -16 -16 -16 -16 -16
    -16 -16 -16 -16 -16 -16 -16 -16 -16 -16 -16 -16 -16 -16 -16 -16 -16 -16 -16 -16 -16 -16 -16 -16 -16 -16 -16 -16 -16 -16 -16 -16 -16 -16 -16 -16 -16 -16 -16 -16 -16 -16 -16 -16 -16 -16 -16 -16 -16 -16 -16 -16 -16 -16 -16 -16 -16 -16 -16 -16 -16 -16 -16 -16 -16 -16 -16 239 239 239 240 239 238 237 239 237 238 238 238 237 237 236 237 232 232 233 231 230 229 229 229 224 230 230 229 -16 -16 -16 -16 -16 -16 291 290 290 289 288 289 288 288 288 287 287 286 -16 -16 -16 -16 -16 -16 -16 -16 -16 -16 -16 -16 -16 -16 -16 -16 -16 -16 485 488 488 -16 493 495 497 502 500 499 500 500 499 499 500 501 496 503 504 504 505 507 506 506 506 506 506 506 506 505 506 508 509 510 510 510 509 510 511 510 509 511 509 506 506 506 506 -16 -16 -16 501 503 505 506 505 505 504 504 505 504 504 501 501 501 497 499 498 497 496 496 496 495 495 495 493 493 493 -16 -16 -16 -16 -16 380 381 379 378 -16 378 378 -16 -16 -16 -16 -16 -16 -16 -16 -16 382 -16 -16 -16 -16 -16 -16 -16 -16 -16 -16 -16 -16 -16 -16 -16 -16 -16 -16 -16 -16 -16 -16 -16 -16 -16 -16 -16 -16 -16 -16 -16 -16 -16 -16 -16 679 683 682 -16 -16 -16 -16 675 675 679 684 691 -16 -16 -16 -16 -16 736 -16 -16 368 369 371 370 372 374 376 377 379 382 382 381 382 381 382 381 382 381 380 379 380 380 382 380 380 380 381 381 382 380 382 379 381 381 381 381 378 377 377 372 372 371 371 370 367 369 369 239 240 241 240 240 239 240 -16 -16 -16 -16 -16 -16 -16 -16 -16 -16 -16 -16 -16 -16 -16 -16 -16 -16 -16 -16 239 -16 -16 -16 -16 -16 -16 -16 -16 -16 -16 -16 -16 -16 -16 -16 -16 -16 -16 -16 -16 -16 -16 -16 -16
    -16 -16 -16 -16 -16 -16 -16 -16 -16 -16 -16 -16 -16 -16 -16 -16 -16 -16 -16 -16 -16 -16 -16 -16 -16 -16 -16 -16 -16 -16 -16 -16 -16 -16 -16 -16 -16 -16 -16 -16 -16 -16 -16 -16 -16 -16 -16 -16 -16 -16 -16 -16 -16 -16 -16 -16 -16 -16 -16 -16 -16 -16 -16 -16 -16 -16 -16 239 239 240 242 240 239 238 240 238 239 239 238 237 236 236 237 232 232 232 231 230 229 229 229 225 231 -16 -16 -16 -16 -16 -16 -16 291 292 291 291 290 288 289 288 287 288 287 287 286 -16 -16 -16 -16 -16 -16 -16 -16 -16 -16 -16 -16 -16 -16 -16 -16 -16 -16 489 492 492 492 496 495 499 502 499 499 500 500 500 499 502 502 496 504 505 504 505 506 506 506 506 506 507 506 506 506 506 509 510 511 511 510 510 510 512 511 510 511 510 508 507 507 508 506 506 505 503 502 505 505 504 504 503 503 504 503 504 501 501 501 497 498 498 497 497 496 496 495 495 495 493 493 493 -16 -16 -16 -16 -16 379 380 379 378 377 377 -16 -16 -16 -16 -16 -16 -16 -16 -16 -16 381 -16 -16 -16 -16 -16 -16 -16 -16 -16 -16 -16 -16 -16 -16 -16 -16 -16 -16 -16 -16 -16 -16 -16 -16 -16 -16 -16 -16 -16 -16 -16 -16 -16 -16 -16 -16 695 -16 -16 -16 -16 -16 -16 678 679 682 685 678 678 676 674 -16 -16 -16 -16 -16 370 371 371 372 374 376 376 378 381 381 381 381 380 381 381 382 381 380 380 381 381 382 380 380 380 381 381 381 380 381 379 380 380 380 381 377 376 377 373 372 371 371 370 367 369 -16 238 239 240 240 240 240 240 240 239 -16 -16 -16 -16 -16 -16 -16 -16 -16 -16 -16 -16 -16 -16 -16 -16 -16 233 243 -16 -16 -16 -16 -16 -16 -16 -16 -16 -16 -16 -16 -16 -16 -16 -16 -16 -16 -16 -16 -16 -16 -16 -16
    -16 -16 -16 -16 -16 -16 -16 -16 -16 -16 -16 -16 -16 -16 -16 -16 -16 -16 -16 -16 -16 -16 -16 -16 -16 -16 -16 -16 -16 -16 -16 -16 -16 -16 -16 -16 -16 -16 -16 -16 -16 -16 -16 -16 -16 -16 -16 -16 -16 -16 -16 -16 -16 -16 -16 -16 -16 -16 -16 -16 -16 -16 -16 -16 -16 -16 -16 240 240 241 242 241 239 238 241 238 240 239 239 237 236 236 237 231 232 232 231 230 230 230 230 228 235 250 -16 -16 -16 283 289 290 290 291 291 291 289 288 290 289 288 289 288 288 -16 -16 -16 -16 -16 -16 -16 -16 -16 -16 -16 -16 -16 -16 -16 -16 -16 -16 -16 491 494 492 493 497 495 499 502 499 499 500 499 499 499 501 501 495 504 505 504 506 506 506 506 506 507 508 507 507 506 507 509 510 511 511 510 510 510 512 511 510 513 512 510 509 509 509 507 508 506 504 502 504 504 504 504 503 503 503 503 504 501 501 500 497 498 498 497 497 496 496 495 495 495 494 493 492 -16 -16 -16 -16 -16 -16 -16 377 377 -16 377 377 -16 380 379 -16 -16 -16 -16 381 381 381 -16 -16 -16 -16 -16 -16 -16 -16 -16 378 379 381 -16 -16 -16 -16 -16 -16 -16 -16 -16 -16 -16 -16 -16 -16 -16 -16 -16 -16 -16 -16 -16 -16 -16 -16 -16 -16 -16 -16 -16 -16 -16 -16 680 682 683 679 679 677 676 -16 -16 -16 -16 -16 370 371 371 372 374 376 376 377 380 381 380 381 380 381 381 382 381 380 380 381 381 382 380 381 380 381 380 381 379 380 378 380 379 379 380 377 376 377 372 372 371 371 370 367 369 240 238 239 240 239 239 240 240 240 239 241 240 240 -16 -16 -16 -16 -16 -16 -16 -16 -16 -16 -16 -16 -16 -16 237 245 -16 -16 -16 -16 -16 -16 -16 -16 -16 -16 -16 -16 -16 -16 -16 -16 -16 -16 -16 -16 -16 -16 -16 -16
    -16 -16 -16 -16 -16 -16 -16 -16 -16 -16 -16 -16 -16 -16 -16 -16 -16 -16 -16 -16 -16 -16 -16 -16 -16 -16 -16 -16 -16 -16 -16 -16 -16 -16 -16 -16 -16 -16 -16 -16 -16 -16 -16 -16 -16 -16 -16 -16 -16 -16 -16 -16 -16 -16 -16 -16 -16 -16 -16 -16 -16 -16 -16 -16 -16 -16 -16 240 240 241 243 242 240 239 242 238 240 240 239 236 236 236 236 232 232 233 232 232 232 232 232 232 242 253 -16 -16 -16 284 290 290 290 291 291 291 289 288 290 289 288 289 288 289 -16 -16 -16 -16 -16 -16 -16 -16 -16 -16 -16 -16 -16 -16 -16 -16 -16 -16 -16 490 492 490 492 497 495 500 501 499 499 500 500 499 500 502 501 497 504 504 504 506 506 506 506 506 507 508 507 507 506 508 510 510 511 511 510 511 511 513 511 511 514 513 512 510 510 510 509 509 507 505 502 504 504 504 504 503 503 503 502 504 501 501 500 497 497 499 498 497 496 496 495 495 496 494 492 491 -16 -16 -16 -16 -16 -16 -16 -16 377 376 377 377 -16 380 378 380 380 380 381 380 380 381 -16 -16 -16 -16 -16 -16 -16 -16 -16 378 379 381 381 -16 -16 385 -16 -16 -16 -16 -16 -16 -16 -16 -16 -16 -16 -16 -16 -16 -16 -16 -16 -16 -16 -16 -16 -16 -16 -16 -16 -16 -16 684 684 685 683 -16 -16 678 -16 -16 -16 -16 -16 -16 369 371 370 371 374 375 375 376 379 380 380 381 380 381 380 382 381 381 380 381 381 383 381 381 380 382 381 381 380 381 378 379 379 378 379 376 376 376 372 372 371 371 370 366 369 241 239 239 239 239 239 240 240 240 239 241 241 241 243 242 243 243 243 -16 243 243 242 240 240 237 -16 237 239 -16 -16 -16 -16 -16 -16 -16 -16 -16 -16 -16 -16 -16 -16 -16 -16 -16 -16 -16 -16 -16 -16 -16 -16 -16
    -16 -16 -16 -16 -16 -16 -16 -16 -16 -16 -16 -16 -16 -16 -16 -16 -16 -16 -16 -16 -16 -16 -16 -16 -16 -16 -16 -16 -16 -16 -16 -16 -16 -16 -16 -16 -16 -16 -16 -16 -16 -16 -16 -16 -16 -16 -16 -16 -16 -16 -16 -16 -16 -16 -16 -16 -16 -16 -16 -16 -16 -16 -16 -16 -16 -16 -16 241 241 242 243 242 240 240 242 239 241 240 239 236 236 236 237 233 233 233 233 233 234 234 -16 -16 246 259 281 -16 283 285 290 289 290 291 291 291 288 288 290 289 288 289 289 289 -16 -16 -16 -16 -16 -16 -16 -16 -16 -16 -16 -16 -16 -16 -16 -16 -16 -16 492 491 493 492 493 496 495 500 501 499 499 500 500 499 500 502 501 499 505 505 504 507 507 507 506 506 508 509 507 507 507 509 510 510 512 511 511 511 512 514 512 512 515 514 514 511 511 511 510 510 508 506 502 504 504 504 504 503 503 503 502 503 501 502 499 497 496 499 498 498 496 496 495 495 496 495 492 490 -16 -16 -16 -16 -16 -16 -16 -16 377 377 377 377 -16 379 377 380 380 379 380 379 380 380 -16 -16 -16 -16 -16 -16 -16 -16 378 378 379 381 380 381 386 384 -16 -16 -16 -16 -16 -16 -16 -16 -16 383 385 386 -16 -16 -16 -16 -16 -16 -16 -16 -16 -16 -16 -16 -16 -16 -16 686 690 -16 -16 -16 -16 -16 -16 -16 -16 -16 -16 -16 370 371 370 371 373 375 375 376 379 380 380 380 380 381 380 382 381 381 380 381 381 384 382 382 381 383 381 382 380 381 378 379 378 378 379 376 375 377 373 372 371 371 371 366 369 -16 239 239 239 239 239 239 239 240 239 240 241 241 243 242 243 243 243 244 242 242 241 239 240 238 237 237 239 -16 -16 -16 -16 -16 -16 -16 -16 -16 -16 -16 -16 -16 -16 -16 -16 -16 -16 -16 -16 -16 -16 -16 -16 -16
    -16 -16 -16 -16 -16 -16 -16 -16 -16 -16 -16 -16 -16 -16 -16 -16 -16 -16 -16 -16 -16 -16 -16 -16 -16 -16 -16 -16 -16 -16 -16 -16 -16 -16 -16 -16 -16 -16 -16 -16 -16 -16 -16 -16 -16 -16 -16 -16 -16 -16 -16 -16 -16 -16 -16 -16 -16 -16 -16 -16 -16 -16 -16 -16 -16 -16 -16 240 241 242 243 242 241 240 242 239 241 240 239 236 236 236 236 234 235 234 233 235 237 241 -16 -16 -16 -16 281 286 284 286 290 289 289 291 290 291 287 289 290 289 288 289 289 290 -16 -16 -16 -16 -16 -16 -16 -16 -16 -16 -16 -16 -16 -16 -16 -16 -16 -16 493 493 495 494 495 495 495 500 500 499 499 500 500 499 501 502 501 501 505 505 504 507 508 507 506 506 508 509 507 507 508 510 511 510 512 511 511 512 513 513 512 513 515 514 514 511 512 511 511 511 508 506 502 503 504 503 503 503 503 502 500 502 501 502 499 497 495 500 498 498 497 496 494 495 497 495 492 -16 -16 -16 -16 -16 -16 -16 -16 -16 376 376 376 376 -16 379 377 379 379 378 380 379 379 379 379 380 378 -16 379 377 378 378 378 378 379 381 380 380 386 384 -16 -16 -16 -16 -16 -16 -16 379 383 381 383 383 388 -16 -16 -16 -16 -16 -16 -16 -16 -16 -16 -16 -16 -16 -16 -16 -16 -16 -16 -16 -16 -16 -16 -16 -16 -16 -16 369 370 371 370 370 372 374 374 374 377 378 379 379 380 380 380 381 380 381 380 380 381 383 381 381 380 382 380 381 379 380 378 379 379 378 379 375 375 377 374 373 372 372 372 367 370 -16 -16 240 240 239 239 240 239 240 239 240 240 241 243 241 242 243 242 243 242 242 241 239 240 238 238 239 241 246 -16 -16 -16 -16 -16 -16 -16 -16 -16 -16 -16 -16 -16 -16 -16 -16 -16 -16 -16 -16 -16 -16 -16 -16
    -16 -16 -16 -16 -16 -16 -16 -16 -16 -16 -16 -16 -16 -16 -16 -16 -16 -16 -16 -16 -16 -16 -16 -16 -16 -16 -16 -16 -16 -16 -16 -16 -16 -16 -16 -16 -16 -16 -16 -16 -16 -16 -16 -16 -16 -16 -16 -16 -16 -16 -16 -16 -16 -16 -16 -16 -16 -16 -16 -16 -16 -16 -16 -16 -16 -16 -16 241 241 242 243 242 241 240 242 240 241 240 239 236 236 236 236 235 236 234 234 236 242 -16 -16 -16 -16 279 281 288 286 287 290 289 290 291 290 290 287 289 290 288 288 289 289 -16 -16 -16 -16 -16 -16 -16 -16 -16 -16 -16 -16 -16 -16 -16 -16 -16 -16 -16 492 493 494 493 496 495 495 500 500 499 499 500 500 499 502 502 501 502 506 506 504 507 508 507 507 507 509 508 507 507 508 510 510 510 512 511 511 512 513 513 512 514 516 514 515 512 513 512 513 512 509 507 503 505 505 504 504 503 503 502 500 501 500 502 498 497 495 499 498 498 496 496 494 496 497 495 491 -16 -16 -16 -16 -16 -16 -16 -16 376 375 374 375 375 374 378 376 378 378 378 380 378 379 379 379 380 378 379 379 378 379 379 378 378 379 381 380 380 383 382 -16 -16 -16 -16 -16 -16 -16 378 382 380 380 380 384 -16 -16 -16 -16 -16 -16 -16 -16 -16 -16 -16 -16 -16 -16 -16 -16 -16 -16 -16 -16 -16 -16 -16 -16 -16 -16 369 370 371 370 370 371 373 372 374 376 378 380 379 379 380 379 380 380 381 379 379 381 382 380 380 380 381 379 380 379 380 378 380 379 379 379 375 375 377 374 373 372 373 372 367 371 -16 -16 -16 -16 240 240 240 239 240 239 241 240 241 242 241 241 242 242 243 241 242 241 239 240 239 239 242 243 247 -16 -16 -16 -16 -16 -16 -16 -16 -16 -16 -16 -16 -16 -16 -16 -16 -16 -16 -16 -16 -16 -16 -16 -16
    -16 -16 -16 -16 -16 -16 -16 -16 -16 -16 -16 -16 -16 -16 -16 -16 -16 -16 -16 -16 -16 -16 -16 -16 -16 -16 -16 -16 -16 -16 -16 -16 -16 -16 -16 -16 -16 -16 -16 -16 -16 -16 -16 -16 -16 -16 -16 -16 -16 -16 -16 -16 -16 -16 -16 -16 -16 -16 -16 -16 -16 -16 -16 -16 -16 -16 -16 241 241 242 243 242 241 240 242 239 241 240 239 235 236 236 235 235 236 234 233 237 247 -16 -16 -16 286 283 283 291 289 289 290 289 290 291 291 290 287 288 290 288 288 290 290 -16 -16 -16 -16 -16 -16 -16 -16 -16 -16 -16 -16 -16 -16 -16 -16 -16 -16 -16 491 493 494 494 498 495 495 500 499 499 500 501 500 499 502 503 501 504 507 507 504 507 509 508 508 509 510 509 508 508 510 511 511 511 513 512 512 513 514 513 512 515 516 514 515 513 513 513 513 512 509 508 504 505 505 504 504 502 503 502 499 501 501 502 498 497 495 499 497 497 496 496 493 495 497 495 491 -16 -16 -16 -16 -16 -16 -16 -16 377 375 375 376 375 374 378 375 377 377 378 379 378 379 379 378 380 378 379 379 378 379 379 378 379 379 381 380 380 382 381 380 -16 -16 -16 -16 -16 -16 378 381 379 379 378 379 -16 379 377 -16 -16 -16 -16 -16 -16 -16 -16 -16 -16 -16 -16 -16 -16 -16 -16 -16 -16 -16 -16 -16 370 368 367 368 370 370 369 370 372 371 374 375 377 379 379 379 379 379 378 379 380 378 378 379 380 378 379 379 380 378 379 379 379 378 380 379 380 379 375 375 377 374 373 373 373 373 368 372 -16 -16 -16 -16 -16 239 241 239 240 240 241 241 241 242 241 241 242 241 242 241 241 241 240 240 239 240 243 244 247 248 248 253 263 -16 -16 -16 -16 -16 -16 -16 -16 -16 -16 -16 -16 -16 -16 -16 -16 -16 -16 -16 -16
    -16 -16 -16 -16 -16 -16 -16 -16 -16 -16 -16 -16 -16 -16 -16 -16 -16 -16 -16 -16 -16 -16 -16 -16 -16 -16 -16 -16 -16 -16 -16 -16 -16 -16 -16 -16 -16 -16 -16 -16 -16 -16 -16 -16 -16 -16 -16 -16 -16 -16 -16 -16 -16 -16 -16 -16 -16 -16 -16 -16 -16 -16 -16 -16 -16 -16 -16 241 240 242 243 242 241 239 241 238 240 239 238 235 235 235 234 235 235 235 233 238 247 -16 -16 285 289 285 286 292 290 290 290 290 291 291 291 290 287 288 289 288 288 290 290 -16 -16 -16 -16 -16 -16 -16 -16 -16 -16 -16 -16 -16 -16 -16 -16 -16 -16 -16 493 495 495 495 498 495 495 500 499 498 499 500 500 499 502 503 500 505 508 508 505 508 510 509 509 511 511 509 509 509 511 512 511 512 513 512 513 514 514 513 512 516 516 514 515 513 513 512 513 511 508 508 505 504 505 503 503 501 501 500 498 500 500 501 497 497 495 499 497 497 496 495 493 495 496 494 -16 -16 -16 -16 -16 -16 -16 -16 -16 378 376 376 376 375 374 377 375 376 376 377 378 377 378 378 378 379 378 379 379 378 379 378 378 378 379 380 379 379 381 380 380 -16 -16 -16 380 377 378 378 380 378 378 377 378 -16 378 377 -16 -16 -16 -16 -16 -16 -16 -16 -16 -16 -16 -16 -16 -16 -16 -16 -16 -16 -16 -16 -16 369 367 367 368 369 369 369 369 372 371 374 375 377 379 378 378 379 377 377 377 379 378 377 378 378 377 378 379 380 378 379 379 379 378 380 379 379 378 374 374 376 374 373 373 373 373 369 372 -16 -16 -16 -16 -16 -16 -16 240 241 240 242 241 241 242 241 241 242 241 242 240 241 242 240 240 240 240 242 244 247 248 246 250 261 269 -16 -16 -16 -16 -16 -16 -16 -16 -16 -16 -16 -16 -16 -16 -16 -16 -16 -16 -16
    -16 -16 -16 -16 -16 -16 -16 -16 -16 -16 -16 -16 -16 -16 -16 -16 -16 -16 -16 -16 -16 -16 -16 -16 -16 -16 -16 -16 -16 -16 -16 -16 -16 -16 -16 -16 -16 -16 -16 -16 -16 -16 -16 -16 -16 -16 -16 -16 -16 -16 -16 -16 -16 -16 -16 -16 -16 -16 -16 -16 -16 -16 -16 -16 -16 -16 -16 240 240 241 240 241 240 238 240 237 239 238 236 235 234 235 233 235 236 235 234 241 248 -16 -16 288 290 287 287 292 291 291 290 290 290 291 290 289 287 288 289 288 288 290 290 -16 -16 -16 -16 -16 -16 -16 -16 -16 -16 -16 -16 -16 -16 -16 -16 -16 -16 497 493 496 496 497 498 495 495 500 498 498 499 500 499 499 502 502 499 505 510 509 505 509 510 509 509 512 511 509 510 510 512 513 512 513 513 513 514 515 515 514 512 517 515 514 514 513 513 512 513 511 508 508 506 505 505 503 503 501 502 500 497 499 501 501 497 497 495 499 497 497 496 495 493 495 496 494 -16 -16 -16 -16 -16 -16 -16 -16 -16 377 375 375 375 375 373 376 373 375 375 376 377 376 377 377 377 379 378 379 379 378 379 378 378 378 378 379 378 378 378 378 379 382 384 379 381 377 379 378 381 379 378 378 378 377 377 376 375 365 369 -16 -16 -16 -16 -16 -16 -16 -16 -16 -16 -16 347 348 -16 -16 -16 -16 361 368 366 367 368 368 369 370 370 373 372 374 375 376 378 378 378 378 376 375 376 378 377 377 377 378 377 378 379 380 379 379 379 379 378 381 380 379 378 375 375 376 375 374 374 374 373 369 372 -16 362 361 363 365 -16 -16 -16 -16 240 242 242 242 242 241 241 242 241 242 240 241 243 241 241 240 239 241 243 246 247 245 249 256 262 262 -16 -16 -16 -16 -16 -16 -16 -16 -16 -16 -16 -16 -16 -16 -16 -16 -16 -16
    -16 -16 -16 -16 -16 -16 -16 -16 -16 -16 -16 -16 -16 -16 -16 -16 -16 -16 -16 -16 -16 -16 -16 -16 -16 -16 -16 -16 -16 -16 -16 -16 -16 -16 -16 -16 -16 -16 -16 -16 -16 -16 -16 -16 -16 -16 -16 -16 -16 -16 -16 -16 -16 -16 -16 -16 -16 -16 -16 -16 -16 -16 -16 -16 -16 -16 -16 240 239 240 237 238 237 236 238 236 238 -16 -16 234 235 236 234 236 236 235 234 243 250 -16 -16 290 292 289 290 292 291 291 290 290 290 290 290 289 287 288 288 288 289 291 -16 -16 -16 -16 -16 -16 -16 -16 -16 -16 -16 -16 -16 -16 -16 -16 -16 -16 496 496 493 496 496 498 497 495 495 500 498 498 499 500 499 499 502 502 499 506 511 510 506 511 511 510 510 513 511 509 510 510 511 513 512 513 513 514 515 516 515 514 513 517 515 514 514 513 514 512 513 512 508 508 507 507 507 505 505 503 502 501 498 500 502 501 498 497 495 500 498 497 496 494 493 495 496 494 490 -16 482 -16 -16 -16 -16 -16 -16 377 375 376 377 377 376 377 375 376 375 375 376 376 377 377 377 379 379 380 380 379 380 379 378 378 378 378 377 377 377 377 377 378 381 379 381 378 380 379 381 379 378 378 377 377 377 376 375 371 375 374 351 369 366 374 372 371 -16 362 365 -16 354 349 346 345 357 -16 362 369 367 367 369 369 370 370 370 373 372 375 375 376 378 378 378 378 375 374 375 378 377 377 377 377 377 378 379 380 378 378 378 378 378 381 381 380 379 376 376 377 375 374 374 374 374 370 373 371 363 361 362 364 -16 -16 -16 -16 -16 242 242 242 242 241 242 243 242 243 241 242 244 241 241 240 240 240 241 245 245 243 247 250 250 251 252 252 -16 -16 -16 -16 252 254 255 260 -16 261 265 -16 -16 -16 -16 -16
    -16 -16 -16 -16 -16 -16 -16 -16 -16 -16 -16 -16 -16 -16 -16 -16 -16 -16 -16 -16 -16 -16 -16 -16 -16 -16 -16 -16 -16 -16 -16 -16 -16 -16 -16 -16 -16 -16 -16 -16 -16 -16 -16 -16 -16 -16 -16 -16 -16 -16 -16 -16 -16 -16 -16 -16 -16 -16 -16 -16 -16 -16 -16 -16 -16 -16 -16 240 238 -16 -16 -16 -16 -16 -16 233 -16 -16 -16 233 235 237 236 237 237 235 235 244 -16 -16 -16 -16 294 290 292 292 292 291 291 290 290 290 290 288 287 287 288 287 288 291 -16 -16 -16 -16 -16 -16 -16 -16 -16 -16 -16 -16 -16 -16 -16 -16 -16 495 495 495 492 495 496 499 497 495 495 500 498 498 499 500 499 500 502 502 499 506 512 510 506 511 512 511 510 514 510 508 510 510 511 512 512 513 513 514 515 516 515 514 514 517 515 514 514 513 514 512 513 512 508 508 508 508 508 506 506 503 503 501 499 500 502 501 497 497 496 499 498 497 495 494 493 495 496 493 490 486 481 -16 -16 -16 -16 -16 377 379 377 378 377 376 375 376 374 375 375 375 375 375 377 -16 -16 378 378 379 379 379 379 378 378 378 378 378 377 377 377 377 376 377 380 379 380 378 379 378 380 378 377 377 377 377 377 377 376 374 377 376 -16 377 372 374 374 373 -16 363 363 362 359 357 349 351 359 372 365 371 369 369 371 370 371 371 371 374 373 375 375 376 377 378 377 378 373 373 374 376 377 376 377 376 375 377 378 378 377 377 377 378 379 381 381 381 380 378 377 378 376 375 375 374 374 371 374 373 365 364 364 366 -16 -16 -16 -16 379 -16 -16 242 243 242 243 243 242 243 242 242 245 240 241 239 240 240 239 243 244 241 246 247 247 247 248 248 -16 -16 -16 250 250 250 251 253 254 259 263 262 -16 -16 -16 -16
    -16 -16 -16 -16 -16 -16 -16 -16 -16 -16 -16 -16 -16 -16 -16 -16 -16 -16 -16 -16 -16 -16 -16 -16 -16 -16 -16 -16 -16 -16 -16 -16 -16 -16 -16 -16 -16 -16 -16 -16 -16 -16 -16 -16 -16 -16 -16 -16 -16 -16 -16 -16 -16 -16 -16 -16 -16 -16 -16 -16 -16 -16 -16 -16 -16 -16 -16 238 -16 -16 -16 -16 229 232 233 232 233 232 233 233 234 236 235 235 236 235 235 244 -16 -16 -16 291 293 291 291 292 292 291 290 290 290 290 289 288 287 288 287 287 288 291 -16 -16 -16 -16 -16 -16 -16 -16 -16 -16 -16 -16 -16 -16 -16 -16 492 494 494 493 491 494 495 499 497 495 495 500 498 498 499 501 499 500 502 502 499 506 513 510 506 512 513 511 511 515 511 508 510 511 512 512 512 514 512 515 516 516 515 514 514 518 514 513 512 512 513 512 512 511 508 508 508 509 509 506 506 504 503 501 500 501 502 500 497 496 496 499 497 497 494 494 493 495 495 -16 -16 484 481 481 478 -16 -16 -16 377 378 376 377 376 375 375 376 375 376 375 375 375 375 376 -16 -16 377 377 379 379 379 379 378 379 378 377 377 376 377 376 377 377 377 380 379 379 378 376 376 379 377 376 376 376 377 377 377 377 376 377 378 377 378 377 377 377 376 372 368 365 363 362 364 -16 -16 -16 373 366 372 370 371 372 371 371 372 371 374 373 376 375 375 376 376 375 376 372 372 373 375 376 375 376 375 374 377 377 378 377 377 377 377 379 381 381 381 381 379 377 379 377 375 375 374 374 372 374 373 367 366 369 370 -16 -16 -16 -16 379 382 -16 241 243 242 -16 243 242 244 -16 -16 246 240 240 240 240 240 238 242 243 240 244 244 245 245 246 246 245 247 252 248 249 249 250 250 252 256 262 259 -16 -16 -16 -16
    -16 -16 -16 -16 -16 -16 -16 -16 -16 -16 -16 -16 -16 -16 -16 -16 -16 -16 -16 -16 -16 -16 -16 -16 -16 -16 -16 -16 -16 -16 -16 -16 -16 -16 -16 -16 -16 -16 -16 -16 -16 -16 -16 -16 -16 -16 -16 -16 -16 -16 -16 -16 -16 -16 -16 -16 -16 -16 -16 -16 -16 -16 -16 -16 -16 -16 -16 236 -16 -16 -16 -16 229 231 233 231 231 231 231 231 232 233 231 -16 233 232 233 -16 -16 -16 -16 -16 292 290 291 291 291 291 290 290 290 289 289 288 287 287 287 287 287 291 -16 -16 -16 -16 -16 -16 -16 -16 -16 -16 -16 -16 -16 -16 -16 -16 -16 493 -16 -16 491 492 494 500 497 495 496 500 498 499 499 501 499 501 503 502 501 506 513 510 505 513 513 512 512 515 511 509 511 511 512 512 512 514 512 515 516 516 515 514 514 518 514 512 511 512 512 511 511 511 508 509 509 509 509 507 507 504 503 500 500 502 502 500 497 495 495 499 497 497 494 493 492 494 495 -16 -16 483 481 482 479 -16 -16 375 376 378 376 377 376 376 376 376 375 376 375 375 375 376 376 376 376 377 377 380 379 381 379 379 379 378 378 377 377 377 377 377 377 376 379 378 379 379 376 377 379 376 376 376 376 376 376 377 377 376 378 378 378 378 378 378 379 377 377 374 374 370 367 371 -16 363 364 373 366 371 370 371 372 372 372 372 373 375 374 376 376 375 376 376 375 376 371 371 372 374 375 375 375 374 373 377 377 377 376 376 377 377 379 382 381 381 382 380 378 379 376 375 375 374 374 372 375 374 369 370 373 374 373 363 -16 378 379 381 385 -16 -16 -16 -16 -16 -16 -16 -16 -16 -16 -16 242 242 242 240 238 242 243 240 244 244 244 244 245 245 243 246 251 247 249 249 249 249 251 254 261 257 -16 -16 -16 -16
    -16 -16 -16 -16 -16 -16 -16 -16 -16 -16 -16 -16 -16 -16 -16 -16 -16 -16 -16 -16 -16 -16 -16 -16 -16 -16 -16 -16 -16 -16 -16 -16 -16 -16 -16 -16 -16 -16 -16 -16 -16 -16 -16 -16 -16 -16 -16 -16 -16 -16 -16 -16 -16 -16 -16 -16 -16 -16 -16 -16 -16 -16 -16 -16 -16 -16 -16 240 -16 -16 -16 -16 228 231 232 231 230 230 230 230 230 231 230 -16 -16 -16 -16 -16 -16 -16 -16 -16 289 288 290 290 290 290 290 290 290 290 289 288 288 287 287 286 287 290 -16 -16 -16 -16 -16 -16 -16 -16 -16 -16 -16 -16 -16 -16 -16 -16 -16 -16 -16 -16 -16 491 493 499 498 496 497 499 499 499 500 501 500 502 503 502 502 506 512 509 505 513 514 513 513 516 511 509 512 512 513 513 513 515 512 517 517 517 516 515 515 518 513 511 511 511 512 511 510 510 509 509 510 510 510 508 508 507 505 501 500 502 502 500 496 495 494 498 496 496 493 492 492 493 493 -16 -16 482 481 483 478 476 -16 375 376 379 376 377 376 376 376 376 375 376 376 376 376 377 376 376 376 376 377 379 379 381 380 379 379 378 378 377 377 377 376 377 376 375 381 379 382 381 379 380 380 377 377 377 377 376 376 377 376 376 378 379 378 378 379 379 380 379 377 373 372 370 371 375 378 377 378 377 372 374 374 374 375 373 374 374 375 377 376 377 377 377 377 377 376 376 371 372 372 374 375 375 375 375 374 377 377 377 377 377 377 377 379 382 382 382 383 381 378 379 376 375 375 374 374 373 375 375 372 375 375 376 377 377 379 381 380 381 385 388 387 388 389 389 388 390 -16 -16 -16 -16 241 244 241 239 237 242 243 240 243 243 244 244 244 244 242 245 250 247 248 248 247 248 248 251 259 253 -16 -16 -16 -16
    -16 -16 -16 -16 -16 -16 -16 -16 -16 -16 -16 -16 -16 -16 -16 -16 -16 -16 -16 -16 -16 -16 -16 -16 -16 -16 -16 -16 -16 -16 -16 -16 -16 -16 -16 -16 -16 -16 -16 -16 -16 -16 -16 -16 -16 -16 -16 -16 -16 -16 -16 -16 -16 -16 -16 -16 -16 -16 -16 -16 -16 -16 -16 -16 -16 -16 -16 -16 -16 -16 -16 -16 226 230 232 230 230 230 230 230 230 231 230 224 -16 -16 -16 -16 -16 -16 -16 -16 287 288 289 289 289 290 290 290 290 290 289 288 288 287 287 286 286 290 -16 -16 -16 -16 -16 -16 -16 -16 -16 -16 -16 -16 -16 -16 -16 -16 -16 -16 -16 -16 -16 490 492 499 498 497 498 499 499 500 500 501 500 502 503 502 503 505 511 508 505 512 514 513 513 516 512 511 514 514 514 514 514 515 514 518 517 517 516 516 514 517 513 511 510 510 511 510 509 510 509 509 509 509 509 507 507 505 504 501 501 501 501 499 496 494 494 496 495 495 492 491 492 493 493 -16 -16 483 481 483 477 475 -16 -16 377 380 377 378 377 377 377 377 376 377 377 377 377 377 377 376 376 377 -16 381 381 383 380 380 380 379 379 378 377 377 376 -16 -16 -16 -16 379 385 383 381 383 381 380 379 379 379 378 377 378 377 377 379 380 379 379 380 380 381 380 379 376 375 374 375 377 380 380 380 379 378 377 378 377 377 375 375 375 377 378 378 377 377 377 378 379 378 377 372 372 372 373 375 374 375 374 373 377 377 377 377 377 377 378 379 382 381 382 383 381 379 380 377 376 375 375 375 375 377 378 376 379 379 380 381 381 382 383 382 383 385 387 388 388 389 389 389 389 390 390 389 391 -16 -16 237 235 234 240 241 239 242 243 243 244 244 244 242 245 249 246 247 247 247 247 248 249 256 251 -16 -16 -16 -16
    -16 -16 -16 -16 -16 -16 -16 -16 -16 -16 -16 -16 -16 -16 -16 -16 -16 -16 -16 -16 -16 -16 -16 -16 -16 -16 -16 -16 -16 -16 -16 -16 -16 -16 -16 -16 -16 -16 -16 -16 -16 -16 -16 -16 -16 -16 -16 -16 -16 -16 -16 -16 -16 -16 -16 -16 -16 -16 -16 -16 -16 -16 -16 -16 -16 -16 -16 -16 213 215 -16 -16 226 229 232 230 230 230 230 230 230 231 230 223 230 -16 -16 -16 -16 -16 -16 -16 -16 288 289 289 289 290 290 290 290 290 289 288 288 287 287 286 -16 -16 -16 -16 -16 -16 -16 -16 -16 -16 -16 -16 -16 -16 -16 -16 -16 -16 -16 -16 -16 -16 -16 482 -16 498 498 497 498 499 499 500 500 502 499 501 502 502 504 504 509 507 504 511 514 513 514 515 512 511 513 513 513 514 514 515 513 517 517 517 515 516 513 515 512 510 509 510 511 510 509 509 509 509 509 509 508 506 507 505 504 502 502 502 502 499 497 494 495 496 495 494 492 491 492 494 493 492 491 486 483 485 -16 -16 -16 -16 379 381 380 380 378 378 378 378 376 377 378 377 376 377 376 -16 376 376 -16 383 382 386 381 381 381 379 379 378 377 377 -16 -16 -16 -16 -16 379 386 385 382 384 382 381 380 380 381 379 379 379 378 379 380 381 381 380 381 382 383 383 382 378 378 378 380 381 383 382 382 381 382 380 381 380 380 378 377 377 378 378 379 378 378 378 379 380 380 379 373 373 373 374 376 375 375 375 374 378 378 378 378 377 379 379 380 382 382 383 384 382 379 380 378 378 378 377 377 377 379 382 381 383 383 383 383 384 386 386 385 385 386 387 388 389 389 389 390 390 391 391 391 392 392 -16 -16 -16 231 238 240 239 241 241 243 243 243 243 241 245 249 246 247 247 247 247 247 248 254 250 -16 -16 -16 -16
    -16 -16 -16 -16 -16 -16 -16 -16 -16 -16 -16 -16 -16 -16 -16 -16 -16 -16 -16 -16 -16 -16 -16 -16 -16 -16 -16 -16 -16 -16 -16 -16 -16 -16 -16 -16 -16 -16 -16 -16 -16 -16 -16 -16 -16 -16 -16 -16 -16 -16 -16 -16 -16 -16 -16 -16 -16 -16 -16 -16 -16 -16 -16 -16 -16 -16 -16 214 212 215 -16 -16 229 231 234 231 230 231 231 230 230 230 230 223 230 -16 -16 -16 -16 -16 -16 -16 -16 -16 -16 289 289 290 290 290 290 289 289 288 288 287 287 286 -16 -16 -16 -16 -16 -16 -16 -16 -16 -16 -16 -16 -16 -16 -16 -16 -16 -16 -16 -16 -16 -16 -16 475 -16 497 497 497 499 498 499 500 500 501 499 501 502 501 504 504 507 506 504 510 514 513 513 515 512 510 513 513 512 512 513 515 513 516 516 516 515 516 513 514 511 509 509 510 511 510 509 509 509 509 509 509 509 507 507 506 504 502 502 502 501 499 497 494 495 496 494 494 492 491 492 494 493 492 491 -16 484 -16 -16 -16 -16 -16 382 384 382 381 380 380 379 379 377 377 377 376 375 376 374 374 374 375 -16 381 380 385 380 381 381 380 381 379 -16 -16 -16 -16 -16 -16 -16 381 386 385 383 385 383 382 382 382 382 381 380 381 380 381 382 382 382 381 382 382 384 383 383 380 381 382 385 384 385 384 383 383 383 381 382 382 383 380 379 379 380 380 380 380 379 380 382 383 383 381 375 375 374 375 377 376 376 375 374 378 378 378 378 377 378 379 380 382 382 383 384 383 380 381 380 381 383 382 381 380 383 386 385 387 386 385 386 386 387 387 386 387 387 388 389 389 389 389 390 390 391 392 392 393 393 -16 -16 -16 -16 237 240 240 241 241 242 243 243 243 241 246 248 246 247 247 247 247 247 248 253 249 -16 -16 -16 -16
    -16 -16 -16 -16 -16 -16 -16 -16 -16 -16 -16 -16 -16 -16 -16 -16 -16 -16 -16 -16 -16 -16 -16 -16 -16 -16 -16 -16 -16 -16 -16 -16 -16 -16 -16 -16 -16 -16 -16 -16 -16 -16 -16 -16 -16 -16 -16 -16 -16 -16 -16 -16 -16 -16 -16 -16 -16 -16 -16 -16 -16 -16 -16 -16 -16 -16 -16 -16 210 216 -16 -16 230 231 234 231 230 230 231 230 230 230 229 222 229 -16 -16 -16 -16 -16 -16 -16 288 289 -16 289 289 290 290 290 290 289 289 288 288 288 287 286 -16 -16 -16 -16 -16 -16 -16 -16 -16 -16 -16 -16 -16 -16 -16 -16 -16 -16 -16 -16 -16 -16 461 472 486 495 496 497 499 498 499 500 500 501 498 501 502 500 504 503 506 506 504 510 514 513 512 514 512 510 512 512 512 511 511 514 512 515 514 514 514 515 514 513 511 509 509 511 511 510 509 509 509 509 509 508 508 507 506 505 503 502 502 502 501 499 496 494 496 495 494 493 491 491 492 494 492 491 491 -16 -16 -16 -16 -16 -16 -16 383 385 384 382 379 379 380 379 377 -16 -16 -16 -16 -16 -16 371 -16 -16 -16 -16 376 386 379 382 382 381 382 381 -16 -16 -16 -16 -16 -16 -16 384 386 385 383 385 384 383 383 384 384 382 382 383 382 383 384 384 383 383 383 383 383 384 383 381 383 383 385 384 386 385 384 384 385 382 383 383 384 382 382 381 383 383 384 385 383 383 384 384 384 382 376 376 375 375 377 376 376 374 373 377 376 377 376 376 377 378 380 382 381 383 384 384 381 383 381 384 388 385 384 384 386 388 387 389 388 387 387 388 388 388 387 388 387 388 389 390 389 390 391 390 391 391 392 393 393 -16 -16 -16 -16 240 241 242 242 242 241 242 242 242 241 244 246 245 246 246 246 247 247 248 253 249 -16 -16 -16 -16
    -16 -16 -16 -16 -16 -16 -16 -16 -16 -16 -16 -16 -16 -16 -16 -16 -16 -16 -16 -16 -16 -16 -16 -16 -16 -16 -16 -16 -16 -16 -16 -16 -16 -16 -16 -16 -16 -16 -16 -16 -16 -16 -16 -16 -16 -16 -16 -16 -16 -16 -16 -16 -16 -16 -16 -16 -16 -16 -16 -16 -16 -16 -16 -16 -16 -16 -16 217 214 216 230 -16 231 231 233 231 230 230 230 230 229 229 229 222 230 235 -16 -16 -16 -16 -16 285 288 290 -16 290 290 290 290 290 290 289 288 288 288 287 286 286 -16 -16 -16 -16 -16 -16 -16 -16 -16 -16 -16 -16 -16 -16 -16 -16 -16 -16 -16 -16 -16 454 457 472 482 493 495 496 499 497 499 499 500 501 498 500 501 499 504 503 505 505 503 509 514 513 512 513 512 510 512 512 512 511 510 512 512 514 513 513 513 515 514 513 510 509 509 511 510 510 509 509 509 509 509 508 507 507 506 504 503 502 501 501 500 499 495 494 497 494 493 492 491 491 491 493 492 490 490 485 484 484 479 476 476 479 383 387 384 382 -16 379 -16 -16 -16 -16 -16 -16 -16 -16 -16 -16 -16 -16 -16 -16 -16 -16 -16 -16 -16 -16 -16 -16 -16 -16 -16 -16 -16 -16 -16 -16 386 385 383 384 384 383 384 384 385 384 383 386 384 385 385 385 384 384 385 385 385 385 385 384 385 386 387 386 387 386 385 384 385 383 384 383 384 382 385 385 387 387 388 388 387 387 386 385 385 383 379 378 377 377 377 376 376 375 373 377 376 377 376 377 378 379 381 383 382 385 386 386 384 386 385 391 394 389 388 387 388 389 389 390 389 388 388 388 389 389 388 389 387 389 390 390 390 390 391 390 391 392 392 393 393 -16 -16 -16 -16 240 242 242 241 242 241 242 242 241 242 243 244 245 245 245 245 247 247 248 252 249 -16 -16 -16 -16
    -16 -16 -16 -16 -16 -16 -16 -16 -16 -16 -16 -16 -16 -16 -16 -16 -16 -16 -16 -16 -16 -16 -16 -16 -16 -16 -16 -16 -16 -16 -16 -16 -16 -16 -16 -16 -16 -16 -16 -16 -16 -16 -16 -16 -16 -16 -16 -16 -16 -16 -16 -16 -16 -16 -16 -16 -16 -16 -16 -16 -16 -16 -16 -16 -16 -16 -16 221 218 217 231 232 232 232 233 231 230 230 230 229 229 228 228 222 230 235 -16 -16 -16 -16 -16 285 288 290 289 290 289 290 289 289 290 289 288 288 287 287 286 -16 -16 -16 -16 -16 -16 -16 -16 -16 -16 -16 -16 -16 -16 -16 -16 -16 -16 -16 -16 -16 452 453 457 471 480 491 493 495 499 496 498 498 498 500 497 499 501 498 504 502 505 505 503 509 513 513 512 513 512 510 512 512 512 511 511 513 513 514 513 513 513 515 514 514 510 509 510 512 511 510 509 509 509 510 510 509 507 507 507 505 503 502 501 501 499 498 495 494 497 493 492 492 491 491 491 493 491 489 489 484 483 483 478 477 476 478 -16 -16 -16 -16 -16 -16 -16 -16 -16 -16 -16 -16 -16 -16 -16 -16 -16 -16 -16 -16 -16 -16 -16 -16 -16 -16 -16 -16 -16 -16 -16 -16 -16 -16 -16 -16 385 385 383 385 384 384 384 385 385 385 384 386 385 386 386 386 385 385 385 386 386 386 386 385 386 387 388 386 -16 -16 384 383 385 383 384 383 384 382 386 386 387 387 388 388 386 385 386 384 385 384 383 381 379 379 380 379 379 379 378 380 382 386 392 389 387 389 390 391 394 397 396 393 393 394 -16 393 395 389 389 387 388 389 389 390 389 388 388 388 389 389 388 389 387 389 390 390 390 391 391 390 391 391 392 393 394 -16 -16 -16 -16 239 241 242 241 242 241 243 242 241 243 243 244 244 244 244 244 247 247 247 252 250 -16 -16 -16 -16
    -16 -16 -16 -16 -16 -16 -16 -16 -16 -16 -16 -16 -16 -16 -16 -16 -16 -16 -16 -16 -16 -16 -16 -16 -16 -16 -16 -16 -16 -16 -16 -16 -16 -16 -16 -16 -16 -16 -16 -16 -16 -16 -16 -16 -16 -16 -16 -16 -16 -16 -16 -16 -16 -16 -16 -16 -16 -16 -16 -16 -16 -16 -16 -16 -16 -16 -16 220 221 219 231 234 232 232 232 231 230 230 230 229 228 228 227 223 231 238 -16 -16 -16 -16 286 286 288 290 289 289 289 289 289 289 289 289 287 287 287 287 286 -16 234 -16 -16 -16 -16 -16 -16 -16 -16 -16 -16 -16 -16 -16 -16 -16 -16 -16 -16 -16 453 455 458 471 479 491 493 495 499 496 497 497 497 499 495 498 500 496 504 502 505 505 504 509 513 513 512 512 511 510 512 512 511 511 511 513 514 515 513 514 514 515 514 514 511 510 511 513 511 510 510 510 510 510 510 509 507 507 507 505 504 502 501 500 499 498 496 495 498 493 492 491 490 491 492 492 491 486 487 483 483 483 479 478 477 477 -16 -16 -16 -16 -16 -16 -16 -16 -16 -16 -16 -16 -16 -16 -16 -16 -16 -16 -16 -16 -16 -16 -16 -16 -16 -16 -16 -16 -16 -16 -16 -16 -16 -16 -16 -16 384 384 384 385 384 384 384 384 385 385 384 386 384 385 386 385 385 385 385 387 386 386 386 384 386 386 386 384 -16 383 382 382 384 382 383 382 384 382 386 386 387 386 387 387 386 385 386 384 386 385 386 385 383 385 386 386 384 384 382 380 380 -16 -16 -16 -16 -16 -16 -16 395 399 400 396 395 397 -16 389 391 387 387 386 388 389 389 390 389 388 388 388 389 388 388 388 387 388 390 390 390 391 391 390 391 391 392 393 -16 -16 -16 -16 -16 -16 241 242 241 242 240 242 242 240 243 243 243 244 244 243 243 245 246 247 251 250 -16 -16 -16 -16
    -16 -16 -16 -16 -16 -16 -16 -16 -16 -16 -16 -16 -16 -16 -16 -16 -16 -16 -16 -16 -16 -16 -16 -16 -16 -16 -16 -16 -16 -16 -16 -16 -16 -16 -16 -16 -16 -16 -16 -16 -16 -16 -16 -16 -16 -16 -16 -16 -16 -16 -16 -16 -16 -16 -16 -16 -16 -16 -16 -16 -16 -16 -16 -16 -16 -16 -16 219 220 220 230 233 232 232 232 231 230 230 230 229 228 227 227 224 232 245 -16 -16 -16 -16 286 287 289 290 290 290 289 289 289 289 289 289 288 287 288 287 288 228 232 237 -16 -16 -16 -16 -16 -16 -16 -16 -16 -16 -16 -16 -16 -16 -16 -16 -16 -16 -16 457 460 471 477 489 492 494 499 496 497 496 497 499 495 497 499 495 503 502 505 505 505 508 512 513 512 512 511 511 512 512 511 511 511 513 513 515 513 514 515 516 514 513 512 511 511 514 512 510 510 510 511 510 510 509 507 507 507 504 503 502 502 500 499 498 496 495 499 493 492 491 491 491 493 493 492 486 486 483 483 483 479 479 478 478 -16 -16 -16 -16 -16 -16 -16 -16 -16 -16 -16 -16 -16 -16 -16 -16 -16 -16 -16 -16 -16 -16 -16 -16 -16 -16 -16 -16 -16 -16 -16 -16 -16 -16 -16 -16 381 384 384 385 385 384 384 385 385 387 385 387 386 386 387 386 385 385 385 387 385 386 385 384 384 385 385 383 379 381 380 381 382 382 382 382 383 383 386 386 387 386 386 387 386 385 386 384 386 385 386 385 384 386 386 387 383 384 382 380 380 -16 -16 -16 -16 -16 -16 -16 -16 -16 400 397 397 -16 -16 389 392 386 387 386 388 388 389 390 388 388 388 388 388 388 388 388 386 387 389 389 389 390 391 390 390 391 392 393 394 -16 -16 -16 -16 -16 242 242 242 242 240 243 242 240 243 242 242 244 243 243 242 243 245 246 251 250 -16 -16 -16 -16
    -16 -16 -16 -16 -16 -16 -16 -16 -16 -16 -16 -16 -16 -16 -16 -16 -16 -16 -16 -16 -16 -16 -16 -16 -16 -16 -16 -16 -16 -16 -16 -16 -16 -16 -16 -16 -16 -16 -16 -16 -16 -16 -16 -16 -16 -16 -16 -16 -16 -16 -16 -16 -16 -16 -16 -16 -16 -16 -16 -16 -16 -16 -16 -16 -16 -16 -16 220 220 221 229 233 232 232 232 231 230 230 230 229 228 227 227 226 233 246 -16 -16 -16 -16 288 290 291 291 291 290 290 290 289 290 290 289 288 289 290 290 -16 227 230 234 -16 -16 -16 -16 -16 -16 -16 -16 -16 -16 -16 -16 -16 -16 -16 -16 -16 -16 455 458 462 471 477 487 491 493 498 495 496 496 496 498 495 496 498 496 503 503 505 505 506 508 512 512 511 512 511 511 511 511 511 511 510 512 513 514 513 513 515 515 514 514 514 512 512 515 512 511 511 511 510 509 510 509 506 506 505 503 502 502 501 500 499 497 496 496 499 494 493 492 492 493 494 494 493 486 486 484 483 483 480 480 479 478 476 -16 -16 -16 -16 -16 -16 -16 -16 -16 -16 -16 -16 -16 -16 -16 -16 -16 -16 -16 -16 -16 -16 -16 -16 -16 -16 -16 -16 -16 -16 -16 -16 -16 -16 -16 380 385 385 385 386 385 385 386 386 389 387 389 387 387 387 386 385 385 385 387 386 386 385 384 384 386 385 384 379 380 380 380 381 381 381 381 381 382 386 387 387 386 387 388 386 386 386 384 385 385 385 385 383 385 386 387 382 383 381 380 378 381 -16 -16 -16 -16 -16 -16 -16 397 398 -16 397 400 -16 -16 392 386 387 386 388 388 388 389 388 388 388 388 389 388 389 388 387 387 390 389 389 390 390 390 390 391 391 392 -16 -16 -16 -16 -16 -16 243 243 242 242 240 242 243 240 242 242 242 244 243 243 242 241 245 246 251 251 -16 -16 -16 -16
    -16 -16 -16 -16 -16 -16 -16 -16 -16 -16 -16 -16 -16 -16 -16 -16 -16 -16 -16 -16 -16 -16 -16 -16 -16 -16 -16 -16 -16 -16 -16 -16 -16 -16 -16 -16 -16 -16 -16 -16 -16 -16 -16 -16 -16 -16 -16 -16 -16 -16 -16 -16 -16 -16 -16 -16 -16 -16 -16 -16 -16 -16 -16 -16 -16 -16 -16 222 222 223 229 233 232 232 232 230 230 230 230 229 229 227 227 226 233 245 -16 -16 285 -16 289 291 292 291 291 291 290 290 290 290 291 290 289 290 292 -16 225 227 228 232 -16 -16 -16 -16 -16 -16 -16 -16 -16 -16 -16 -16 -16 -16 -16 -16 455 456 455 459 -16 470 477 486 490 492 497 495 495 495 495 498 495 497 499 496 503 504 506 506 506 508 511 512 511 511 511 510 511 511 510 511 510 512 512 515 513 514 516 515 514 514 514 512 512 515 512 510 511 511 510 509 510 509 506 506 505 504 503 502 501 500 499 498 497 497 500 494 493 493 493 494 494 495 493 486 484 483 482 482 479 479 479 478 477 -16 -16 -16 -16 -16 -16 -16 -16 -16 -16 -16 -16 -16 -16 -16 -16 -16 -16 -16 -16 -16 -16 -16 -16 -16 -16 -16 -16 -16 -16 -16 -16 -16 -16 -16 -16 383 385 383 386 386 386 387 387 391 392 392 391 389 388 388 386 386 386 388 386 386 385 385 384 386 385 383 379 380 379 380 381 381 380 381 382 382 386 387 387 386 387 388 387 386 387 385 385 385 386 385 383 -16 -16 -16 383 383 380 380 377 380 -16 -16 -16 -16 -16 -16 -16 -16 -16 -16 396 401 397 -16 392 -16 387 386 388 388 388 389 388 388 389 388 389 389 389 389 387 388 389 389 389 389 390 389 390 391 391 392 393 -16 -16 -16 -16 243 244 244 243 243 240 243 243 240 243 242 242 244 244 243 242 241 245 246 253 252 -16 -16 -16 -16
    -16 -16 -16 -16 -16 -16 -16 -16 -16 -16 -16 -16 -16 -16 -16 -16 -16 -16 -16 -16 -16 -16 -16 -16 -16 -16 -16 -16 -16 -16 -16 -16 -16 -16 -16 -16 -16 -16 -16 -16 -16 -16 -16 -16 -16 -16 -16 -16 -16 -16 -16 -16 -16 -16 -16 -16 -16 -16 -16 -16 -16 -16 -16 -16 -16 -16 -16 223 223 224 228 232 232 232 232 230 230 230 230 229 228 227 227 226 232 237 -16 -16 285 286 289 292 291 291 291 291 290 290 291 291 291 -16 290 291 -16 226 225 226 227 231 231 -16 -16 -16 -16 -16 -16 -16 -16 -16 -16 -16 -16 -16 -16 451 451 450 450 458 -16 469 476 -16 490 492 497 495 495 495 496 498 495 498 499 498 504 505 507 507 508 509 511 512 511 511 511 511 511 511 510 511 510 512 512 515 513 514 516 515 515 514 515 513 513 515 512 511 511 511 510 509 510 509 506 507 505 503 503 502 501 499 498 498 496 495 498 493 492 492 493 493 493 493 491 484 482 481 481 480 478 478 479 478 476 -16 -16 -16 -16 -16 -16 -16 -16 -16 -16 -16 -16 -16 -16 -16 -16 -16 -16 -16 -16 -16 -16 -16 -16 -16 -16 -16 -16 -16 -16 -16 -16 -16 -16 -16 -16 383 386 383 388 388 388 389 390 393 395 394 393 390 389 389 386 386 386 388 386 386 385 384 383 385 384 383 379 379 379 380 381 381 380 381 382 382 386 386 387 386 387 387 387 386 387 385 386 386 386 385 384 387 388 387 383 383 380 381 377 380 -16 378 380 383 385 385 385 386 385 384 387 385 389 383 -16 -16 386 386 388 388 388 389 388 388 389 388 389 388 389 389 387 388 389 389 388 389 389 389 389 390 390 391 -16 -16 -16 -16 -16 244 245 245 244 244 241 243 243 241 243 242 243 244 244 243 242 241 244 246 253 252 -16 -16 -16 -16
    -16 -16 -16 -16 -16 -16 -16 -16 -16 -16 -16 -16 -16 -16 -16 -16 -16 -16 -16 -16 -16 -16 -16 -16 -16 -16 -16 -16 -16 -16 -16 -16 -16 -16 -16 -16 -16 -16 -16 -16 -16 -16 -16 -16 -16 -16 -16 -16 -16 -16 -16 -16 -16 -16 -16 -16 -16 -16 -16 -16 -16 -16 -16 -16 -16 -16 -16 222 223 224 228 230 231 231 231 230 230 230 230 229 228 227 227 226 230 231 -16 -16 -16 -16 293 293 292 292 291 291 289 289 290 290 -16 -16 -16 -16 224 227 225 226 226 230 229 232 -16 -16 -16 -16 -16 -16 -16 -16 -16 -16 -16 -16 -16 -16 444 445 444 454 456 467 476 -16 490 492 496 495 495 495 495 498 495 498 499 498 503 504 506 508 508 509 511 512 511 511 511 511 511 511 511 512 511 512 512 516 513 514 517 516 514 514 515 513 514 515 512 511 511 511 510 510 511 509 507 508 505 502 502 501 500 499 498 497 496 496 498 492 492 493 493 493 493 492 490 483 480 480 480 479 478 478 478 477 -16 -16 -16 -16 -16 -16 -16 -16 -16 -16 -16 -16 -16 -16 -16 -16 -16 -16 -16 -16 -16 404 -16 -16 -16 -16 -16 -16 -16 -16 -16 -16 -16 -16 -16 -16 -16 387 390 385 390 390 389 390 391 394 395 395 394 391 390 389 386 386 386 388 387 386 385 384 383 385 384 383 380 379 379 380 380 380 379 380 -16 382 386 386 387 387 387 387 387 386 387 386 386 386 386 385 385 387 389 387 381 380 378 380 376 382 379 380 385 385 387 387 386 386 385 386 387 383 386 380 -16 -16 382 384 386 387 386 389 388 388 388 388 388 388 389 389 387 388 388 389 388 389 389 388 388 389 389 390 -16 -16 -16 -16 -16 245 245 245 245 244 242 243 243 241 243 242 243 244 243 243 243 242 245 245 251 252 -16 -16 -16 -16
    -16 -16 -16 -16 -16 -16 -16 -16 -16 -16 -16 -16 -16 -16 -16 -16 -16 -16 -16 -16 -16 -16 -16 -16 -16 -16 -16 -16 -16 -16 -16 -16 -16 -16 -16 -16 -16 -16 -16 -16 -16 -16 -16 -16 -16 -16 -16 -16 -16 -16 -16 -16 -16 -16 -16 -16 -16 -16 -16 -16 -16 -16 -16 -16 -16 -16 -16 223 223 225 228 229 231 231 231 230 230 230 230 229 229 228 228 228 230 231 -16 -16 -16 -16 296 295 294 293 292 291 289 289 290 290 -16 -16 -16 -16 224 226 225 226 225 229 228 232 232 231 231 236 -16 246 -16 -16 -16 -16 -16 -16 -16 -16 443 -16 443 -16 -16 465 -16 -16 490 491 496 495 495 495 495 497 496 497 499 498 503 504 507 509 510 509 511 513 511 512 512 512 512 512 512 512 511 513 513 516 514 514 517 516 515 515 515 513 514 515 512 512 512 511 510 510 511 509 507 508 506 503 503 501 500 498 498 497 496 494 495 491 491 492 492 492 491 491 490 483 480 480 480 479 478 478 478 -16 384 382 384 383 383 382 381 382 380 380 381 -16 -16 -16 -16 -16 -16 -16 -16 -16 -16 402 -16 -16 -16 -16 -16 -16 -16 379 -16 -16 -16 -16 -16 -16 -16 392 394 -16 394 393 393 393 394 396 396 396 395 393 391 389 386 385 386 388 387 386 386 385 384 385 385 384 380 -16 -16 -16 380 380 379 381 384 383 386 386 386 386 387 387 388 386 387 386 387 387 387 386 386 -16 -16 384 378 377 376 378 375 382 379 382 385 385 387 387 386 386 385 386 385 384 386 -16 -16 -16 382 385 385 385 385 387 386 387 387 387 387 388 388 388 388 388 388 388 388 389 389 388 388 389 389 390 -16 -16 -16 -16 -16 245 246 245 245 244 242 244 243 241 243 242 243 244 244 243 244 243 246 246 251 252 -16 -16 -16 -16
    -16 -16 -16 -16 -16 -16 -16 -16 -16 -16 -16 -16 -16 -16 -16 -16 -16 -16 -16 -16 -16 -16 -16 -16 -16 -16 -16 -16 -16 -16 -16 -16 -16 -16 -16 -16 -16 -16 -16 -16 -16 -16 -16 -16 -16 -16 -16 -16 -16 -16 -16 -16 -16 -16 -16 -16 -16 -16 -16 -16 -16 -16 -16 -16 -16 -16 -16 223 223 224 227 229 230 231 231 229 230 230 230 229 229 229 228 229 231 231 -16 -16 -16 -16 -16 296 295 294 292 291 289 289 291 -16 -16 -16 -16 221 224 226 225 226 225 228 226 230 231 229 229 233 234 241 246 -16 -16 -16 -16 -16 -16 -16 -16 -16 -16 -16 -16 -16 -16 -16 -16 491 496 496 495 495 496 497 496 497 499 499 503 505 508 511 511 510 511 513 512 513 513 513 512 512 512 513 511 514 514 517 515 515 517 516 515 515 515 513 514 514 512 512 512 511 511 510 511 509 508 509 506 503 502 501 499 498 498 497 495 493 493 490 491 491 491 490 490 490 489 482 480 480 480 478 478 478 477 388 384 383 385 384 384 383 382 383 380 380 381 -16 -16 -16 -16 -16 -16 -16 -16 -16 -16 402 -16 -16 -16 -16 -16 386 382 379 -16 -16 -16 -16 -16 -16 -16 395 397 398 396 395 394 395 394 396 395 395 395 394 392 390 387 386 386 388 387 386 386 385 384 384 385 384 380 -16 -16 -16 379 379 379 380 384 384 386 387 387 385 387 387 388 387 388 387 387 387 387 387 -16 -16 -16 381 375 -16 376 378 375 -16 380 385 385 385 387 386 386 386 385 386 384 385 387 -16 -16 -16 384 387 386 386 385 385 385 385 387 387 387 388 389 388 388 388 388 388 388 389 389 388 388 388 388 389 -16 -16 -16 -16 -16 246 246 246 246 245 243 244 244 242 243 243 244 245 244 243 245 244 246 246 251 252 -16 -16 -16 -16
    -16 -16 -16 -16 -16 -16 -16 -16 -16 -16 -16 -16 -16 -16 -16 -16 -16 -16 -16 -16 -16 -16 -16 -16 -16 -16 -16 -16 -16 -16 -16 -16 -16 -16 -16 -16 -16 -16 -16 -16 -16 -16 -16 -16 -16 -16 -16 -16 -16 -16 -16 -16 -16 -16 -16 -16 -16 -16 -16 -16 -16 -16 -16 -16 -16 -16 -16 223 223 224 227 229 230 230 231 229 229 230 230 229 229 229 229 229 230 231 230 -16 -16 -16 -16 299 295 294 292 291 288 289 291 -16 -16 -16 221 221 224 226 225 226 224 227 225 229 230 228 227 230 230 231 -16 -16 -16 -16 -16 -16 -16 -16 -16 -16 -16 -16 -16 -16 -16 -16 -16 -16 -16 497 496 496 497 498 496 497 499 500 503 505 510 513 512 511 512 514 512 513 513 513 512 512 513 513 511 515 514 517 515 516 517 516 516 514 515 513 514 514 512 512 512 511 511 510 511 508 508 509 506 503 502 501 499 498 498 497 494 492 491 490 490 490 490 490 489 489 486 481 480 479 479 478 478 478 -16 388 384 384 386 384 384 383 382 383 380 381 381 -16 -16 -16 -16 -16 -16 -16 -16 -16 -16 400 -16 -16 -16 -16 387 388 385 381 -16 -16 -16 -16 -16 -16 -16 397 398 399 396 395 395 396 395 394 394 393 393 392 392 390 388 385 385 387 388 387 386 385 384 384 385 384 381 -16 -16 -16 379 379 379 381 384 385 385 387 386 385 388 387 389 388 389 388 388 388 388 388 -16 -16 -16 382 -16 -16 -16 -16 -16 -16 381 386 385 385 387 386 386 386 384 386 384 386 387 380 384 386 386 388 387 387 386 385 385 386 387 388 387 388 389 388 388 388 388 388 388 388 389 389 389 389 390 390 -16 -16 -16 -16 -16 248 248 247 247 247 244 244 244 242 243 243 244 245 245 244 245 243 246 246 250 251 -16 -16 -16 -16
    -16 -16 -16 -16 -16 -16 -16 -16 -16 -16 -16 -16 -16 -16 -16 -16 -16 -16 -16 -16 -16 -16 -16 -16 -16 -16 -16 -16 -16 -16 -16 -16 -16 -16 -16 -16 -16 -16 -16 -16 -16 -16 -16 -16 -16 -16 -16 -16 -16 -16 -16 -16 -16 -16 -16 -16 -16 -16 -16 -16 -16 -16 -16 -16 -16 -16 -16 223 222 223 226 228 229 229 230 228 229 230 230 229 229 230 229 229 230 231 230 -16 -16 -16 -16 298 296 294 292 291 288 289 291 -16 -16 -16 221 221 224 226 224 225 225 227 224 228 229 226 226 228 228 226 229 227 -16 -16 -16 -16 -16 -16 -16 -16 -16 -16 -16 -16 -16 -16 -16 -16 -16 -16 -16 496 498 498 497 497 499 501 504 505 511 514 513 511 513 514 513 514 514 513 512 513 513 513 512 515 514 518 516 515 517 516 516 514 514 513 515 513 512 512 511 510 511 511 511 508 509 509 506 504 502 500 499 497 497 496 493 492 491 490 490 489 489 489 487 487 482 480 479 479 479 479 478 478 381 388 385 384 386 384 384 383 382 383 380 381 381 -16 -16 -16 -16 -16 -16 -16 -16 -16 -16 396 -16 391 391 392 388 389 388 386 389 -16 -16 397 -16 398 -16 398 398 398 396 395 395 397 395 394 393 391 391 390 391 390 388 385 385 386 387 387 386 386 384 384 386 385 382 -16 -16 -16 380 379 379 381 382 385 384 387 387 387 391 390 390 389 390 389 388 388 388 388 -16 -16 387 382 -16 -16 -16 -16 -16 386 382 386 385 385 387 386 386 386 384 386 383 385 386 380 384 385 386 388 387 387 387 386 386 386 387 389 388 389 389 388 389 389 388 388 388 388 390 390 390 391 391 392 -16 -16 -16 -16 -16 250 249 248 248 248 245 244 244 243 243 243 245 245 245 244 246 245 246 247 250 250 -16 -16 -16 -16
    -16 -16 -16 -16 -16 -16 -16 -16 -16 -16 -16 -16 -16 -16 -16 -16 -16 -16 -16 -16 -16 -16 -16 -16 -16 -16 -16 -16 -16 -16 -16 -16 -16 -16 -16 -16 -16 -16 -16 -16 -16 -16 -16 -16 -16 -16 -16 -16 -16 -16 -16 -16 -16 -16 -16 -16 -16 -16 -16 -16 -16 -16 -16 -16 -16 -16 -16 222 222 222 225 228 228 229 230 228 228 230 230 229 229 230 229 229 231 231 -16 -16 -16 -16 -16 297 295 294 292 291 288 288 292 -16 -16 -16 221 221 224 225 224 225 224 227 223 227 228 224 225 227 226 222 224 222 220 -16 -16 -16 -16 -16 -16 -16 -16 -16 -16 -16 -16 -16 -16 -16 -16 -16 -16 -16 499 498 498 496 499 502 505 507 513 515 514 513 514 515 514 514 514 513 513 513 514 514 513 516 514 519 517 515 516 516 516 514 513 512 515 512 511 512 511 510 510 511 511 508 509 509 505 503 501 499 498 496 495 494 492 491 489 489 489 488 487 487 485 484 477 477 477 477 478 478 477 476 380 388 384 384 385 384 384 383 382 384 380 381 381 -16 -16 -16 -16 -16 -16 -16 -16 -16 -16 395 392 391 391 392 389 390 390 391 -16 398 403 400 399 399 -16 397 396 395 391 391 391 393 392 392 392 390 390 390 390 390 388 385 385 385 387 387 387 386 385 384 386 386 384 380 -16 -16 380 379 379 380 382 384 384 388 -16 -16 396 -16 393 390 -16 390 389 389 389 388 387 -16 -16 382 -16 -16 -16 -16 -16 -16 382 386 385 385 387 386 385 385 384 386 383 384 385 379 381 383 384 387 386 387 388 387 387 388 388 390 389 391 390 389 389 389 388 389 389 388 390 390 390 391 391 392 -16 -16 -16 -16 -16 252 251 249 249 248 245 244 244 243 243 243 245 246 245 244 246 246 246 247 249 250 -16 -16 -16 -16
    -16 -16 -16 -16 -16 -16 -16 -16 -16 -16 -16 -16 -16 -16 -16 -16 -16 -16 -16 -16 -16 -16 -16 -16 -16 -16 -16 -16 -16 -16 -16 -16 -16 -16 -16 -16 -16 -16 -16 -16 -16 -16 -16 -16 -16 -16 -16 -16 -16 -16 -16 -16 -16 -16 -16 -16 -16 -16 -16 -16 -16 -16 -16 -16 -16 -16 -16 222 222 222 225 227 228 229 229 227 228 230 229 229 229 230 230 229 230 231 -16 -16 -16 -16 -16 296 295 293 292 290 288 287 291 -16 -16 -16 222 221 224 225 223 224 224 226 222 226 227 223 224 226 225 220 222 219 217 -16 -16 -16 -16 -16 -16 -16 -16 -16 -16 -16 -16 -16 -16 -16 -16 -16 -16 -16 -16 501 -16 501 501 504 507 508 514 515 514 514 514 515 514 515 514 513 513 513 514 514 513 516 515 519 517 516 516 516 516 514 513 512 515 511 511 513 511 510 511 511 511 507 510 510 505 503 501 499 497 495 494 493 491 490 488 488 488 485 485 484 481 479 475 475 475 477 478 478 477 475 381 389 385 384 385 384 384 383 383 384 381 381 382 -16 -16 -16 -16 -16 -16 -16 -16 -16 -16 -16 -16 390 391 392 390 391 390 390 -16 -16 -16 403 404 402 404 399 397 396 389 390 390 391 391 389 390 388 388 388 389 388 388 385 385 385 387 388 387 386 385 384 386 386 385 381 378 -16 380 380 380 381 383 385 384 385 -16 -16 -16 -16 -16 -16 -16 390 389 389 389 389 388 -16 -16 -16 -16 -16 -16 -16 -16 -16 382 387 385 385 387 386 385 385 384 386 383 384 385 379 381 383 386 -16 387 388 389 388 387 388 389 390 390 391 391 390 390 390 388 389 389 389 390 390 391 391 391 393 -16 -16 -16 -16 -16 254 251 249 248 248 246 244 244 243 243 243 245 246 245 244 246 246 246 246 248 249 -16 -16 -16 -16
    -16 -16 -16 -16 -16 -16 -16 -16 -16 -16 -16 -16 -16 -16 -16 -16 -16 -16 -16 -16 -16 -16 -16 -16 -16 -16 -16 -16 -16 -16 -16 -16 -16 -16 -16 -16 -16 -16 -16 -16 -16 -16 -16 -16 -16 -16 -16 -16 -16 -16 -16 -16 -16 -16 -16 -16 -16 -16 -16 -16 -16 -16 -16 -16 -16 -16 -16 222 223 222 225 227 227 228 229 227 228 229 229 229 229 231 230 229 230 -16 -16 -16 -16 -16 -16 295 293 292 291 289 287 286 -16 -16 -16 -16 -16 221 223 223 222 222 223 224 222 225 226 223 225 226 225 220 221 218 216 -16 -16 -16 -16 -16 -16 -16 -16 -16 -16 -16 -16 -16 -16 -16 -16 -16 -16 -16 -16 -16 -16 -16 497 502 506 509 515 516 515 515 515 516 515 515 515 513 513 514 514 514 513 516 516 520 517 515 515 517 516 514 513 512 515 512 511 514 512 511 511 512 511 507 510 510 506 503 501 498 496 494 493 493 491 490 488 489 489 486 485 483 479 475 473 474 474 476 478 478 476 -16 381 389 385 384 385 384 384 383 383 384 380 381 382 -16 -16 -16 -16 -16 -16 -16 -16 -16 -16 -16 -16 391 393 396 -16 392 390 390 -16 -16 -16 404 405 404 406 404 404 -16 385 386 388 388 388 386 388 387 386 387 387 387 387 385 385 384 386 387 387 386 386 384 386 386 386 382 378 -16 380 380 -16 380 383 384 384 383 -16 -16 -16 -16 -16 -16 389 390 389 390 390 389 389 -16 -16 -16 -16 -16 -16 -16 -16 -16 382 387 386 385 387 386 386 386 384 386 383 384 385 379 381 384 388 390 388 389 390 388 388 388 389 390 389 391 391 -16 390 391 389 390 390 390 390 391 391 392 392 393 -16 -16 -16 -16 -16 253 250 249 249 249 247 244 245 244 244 244 245 246 245 244 247 246 246 246 247 248 -16 -16 -16 -16
    -16 -16 -16 -16 -16 -16 -16 -16 -16 -16 -16 -16 -16 -16 -16 -16 -16 -16 -16 -16 -16 -16 -16 -16 -16 -16 -16 -16 -16 -16 -16 -16 -16 -16 -16 -16 -16 -16 -16 -16 -16 -16 -16 -16 -16 -16 -16 -16 -16 -16 -16 -16 -16 -16 -16 -16 -16 -16 -16 -16 -16 -16 -16 -16 -16 -16 -16 224 224 223 226 227 227 228 229 227 228 230 229 229 230 232 231 230 231 -16 -16 -16 -16 -16 -16 294 293 292 291 289 287 285 -16 -16 -16 -16 -16 220 222 222 220 221 222 223 221 223 225 223 225 225 224 220 221 217 215 -16 -16 -16 -16 -16 -16 -16 -16 -16 -16 -16 -16 -16 -16 -16 -16 -16 -16 -16 -16 -16 -16 -16 491 499 505 507 514 516 514 514 516 516 516 516 515 514 514 515 515 515 513 516 516 520 517 516 514 516 516 514 513 512 515 511 511 513 512 510 511 511 511 507 510 509 505 503 501 497 496 495 494 493 492 491 490 490 491 488 486 484 476 -16 470 471 473 476 478 478 476 -16 382 389 385 384 385 384 384 384 383 384 381 381 383 -16 -16 -16 -16 -16 -16 -16 -16 -16 -16 -16 -16 392 393 399 -16 394 -16 -16 -16 -16 -16 403 404 403 -16 -16 -16 -16 380 382 383 386 386 384 386 386 384 386 386 385 386 385 385 384 385 387 387 387 386 384 386 387 388 384 380 378 380 381 -16 381 383 385 385 383 383 -16 -16 -16 389 388 388 389 388 389 389 388 388 -16 -16 -16 -16 -16 -16 -16 -16 -16 382 388 386 385 388 386 386 386 385 386 383 385 386 379 383 385 389 390 389 389 391 389 388 388 388 389 389 390 -16 -16 -16 -16 -16 390 390 390 391 392 392 392 392 394 -16 -16 -16 -16 -16 -16 250 249 248 249 248 244 245 245 245 245 245 247 246 244 246 246 247 246 247 248 -16 -16 -16 -16
    -16 -16 -16 -16 -16 -16 -16 -16 -16 -16 -16 -16 -16 -16 -16 -16 -16 -16 -16 -16 -16 -16 -16 -16 -16 -16 -16 -16 -16 -16 -16 -16 -16 -16 -16 -16 -16 -16 -16 -16 -16 -16 -16 -16 -16 -16 -16 -16 -16 -16 -16 -16 -16 -16 -16 -16 -16 -16 -16 -16 -16 -16 -16 -16 -16 -16 -16 226 226 224 228 228 227 228 229 227 228 230 229 229 231 232 232 -16 231 -16 -16 -16 -16 -16 292 292 292 291 291 289 287 286 -16 -16 -16 -16 -16 222 224 223 221 222 223 224 222 223 225 223 225 225 224 221 221 218 218 -16 -16 -16 -16 -16 -16 -16 -16 -16 -16 -16 -16 -16 -16 -16 -16 -16 -16 -16 -16 -16 -16 -16 -16 497 506 507 515 515 514 514 516 517 517 516 516 515 515 515 516 515 514 516 516 520 517 516 514 515 516 514 513 512 514 511 511 513 511 510 511 510 510 507 509 509 505 503 500 497 497 496 494 493 492 491 490 491 492 -16 480 -16 -16 -16 -16 461 473 475 479 -16 -16 -16 384 389 385 384 386 384 384 384 383 384 381 382 383 -16 -16 -16 -16 -16 -16 -16 -16 -16 -16 -16 -16 391 -16 -16 -16 -16 386 -16 -16 -16 -16 -16 -16 -16 -16 -16 -16 -16 380 382 382 386 386 384 386 386 384 385 386 385 386 385 385 384 384 387 387 387 386 384 386 386 387 386 382 381 -16 -16 -16 -16 384 -16 -16 -16 -16 -16 -16 -16 387 -16 386 386 386 387 387 387 -16 -16 -16 -16 -16 -16 -16 -16 -16 -16 384 389 386 386 388 386 386 386 385 386 382 386 386 379 384 387 390 390 389 390 392 390 390 389 389 389 389 390 -16 -16 -16 -16 -16 390 391 390 391 392 392 392 393 395 -16 -16 -16 -16 -16 -16 249 248 247 247 247 243 245 244 244 244 244 246 246 244 246 246 247 247 247 248 -16 -16 -16 -16
    -16 -16 -16 -16 -16 -16 -16 -16 -16 -16 -16 -16 -16 -16 -16 -16 -16 -16 -16 -16 -16 -16 -16 -16 -16 -16 -16 -16 -16 -16 -16 -16 -16 -16 -16 -16 -16 -16 -16 -16 -16 -16 -16 -16 -16 -16 -16 -16 -16 -16 -16 -16 -16 -16 -16 -16 -16 -16 -16 -16 -16 -16 -16 -16 -16 -16 -16 228 227 226 229 229 228 229 229 227 227 230 229 229 231 233 232 -16 -16 -16 -16 -16 -16 -16 288 289 290 289 288 287 285 -16 -16 -16 -16 -16 -16 226 225 225 222 223 225 225 223 223 225 224 225 225 224 221 222 220 220 -16 -16 -16 -16 -16 -16 -16 -16 -16 -16 -16 -16 -16 -16 -16 -16 -16 -16 -16 -16 -16 -16 -16 -16 496 507 508 515 514 514 514 516 516 517 517 516 515 516 515 516 516 515 515 516 522 517 515 514 515 515 513 513 512 513 510 510 512 511 510 510 509 509 506 508 508 -16 502 499 496 497 496 495 494 493 492 492 495 -16 -16 -16 -16 421 427 -16 -16 -16 -16 -16 -16 -16 -16 385 390 385 385 385 384 384 384 383 384 380 382 382 -16 -16 -16 -16 -16 -16 -16 -16 -16 -16 -16 387 389 390 -16 -16 -16 385 386 381 -16 -16 -16 -16 -16 -16 -16 -16 -16 379 383 382 386 386 384 386 386 384 385 386 385 386 384 385 384 384 386 386 386 386 384 385 385 387 387 384 384 381 -16 -16 -16 -16 -16 -16 -16 -16 -16 -16 -16 -16 -16 383 383 384 386 385 385 -16 -16 -16 -16 -16 -16 -16 -16 -16 -16 387 389 388 387 388 387 387 387 386 387 384 384 385 379 387 389 391 390 389 391 393 -16 -16 -16 -16 -16 -16 -16 -16 -16 -16 -16 -16 390 391 390 391 393 392 393 393 396 -16 -16 -16 -16 -16 -16 247 247 245 246 246 243 244 243 243 244 244 246 246 244 245 246 246 246 246 247 -16 -16 -16 -16
    -16 -16 -16 -16 -16 -16 -16 -16 -16 -16 -16 -16 -16 -16 -16 -16 -16 -16 -16 -16 -16 -16 -16 -16 -16 -16 -16 -16 -16 -16 -16 -16 -16 -16 -16 -16 -16 -16 -16 -16 -16 -16 -16 -16 -16 -16 -16 -16 -16 -16 -16 -16 -16 -16 -16 -16 -16 -16 -16 -16 -16 -16 -16 -16 -16 -16 -16 229 229 228 230 230 229 230 230 228 228 229 229 230 232 233 -16 -16 -16 -16 -16 -16 -16 284 286 287 288 289 288 287 286 -16 -16 -16 -16 -16 -16 229 227 226 224 223 226 227 224 224 225 224 225 224 224 222 223 221 -16 -16 -16 -16 -16 -16 -16 -16 -16 -16 -16 -16 -16 -16 -16 -16 -16 -16 -16 -16 -16 -16 -16 -16 -16 494 508 507 513 513 514 512 515 516 517 517 516 515 516 515 516 516 515 514 516 522 516 515 515 515 514 513 513 512 512 510 510 511 510 510 509 509 508 506 507 507 503 501 498 497 498 497 495 494 494 495 497 -16 401 -16 -16 -16 416 -16 -16 -16 -16 -16 -16 -16 -16 -16 386 390 385 386 384 384 384 383 382 383 380 382 380 -16 -16 -16 -16 -16 -16 -16 -16 -16 -16 -16 388 390 390 392 392 390 388 -16 382 -16 -16 -16 -16 -16 -16 -16 -16 -16 379 385 382 386 386 384 385 385 384 385 385 385 385 384 385 384 383 386 385 386 385 384 385 385 386 387 385 386 382 387 -16 -16 -16 -16 -16 -16 -16 -16 -16 -16 -16 -16 383 383 384 385 384 384 383 -16 -16 -16 -16 -16 -16 -16 -16 -16 388 389 390 388 389 388 388 388 387 387 385 383 384 379 383 -16 390 -16 389 391 394 -16 -16 -16 -16 -16 -16 390 -16 -16 -16 -16 388 389 390 390 390 392 392 393 393 396 398 -16 -16 -16 -16 -16 247 247 244 245 245 243 244 244 244 244 244 246 246 245 245 246 246 246 246 246 -16 -16 -16 -16
    -16 -16 -16 -16 -16 -16 -16 -16 -16 -16 -16 -16 -16 -16 -16 -16 -16 -16 -16 -16 -16 -16 -16 -16 -16 -16 -16 -16 -16 -16 -16 -16 -16 -16 -16 -16 -16 -16 -16 -16 -16 -16 -16 -16 -16 -16 -16 -16 -16 -16 -16 -16 -16 -16 -16 -16 -16 -16 -16 -16 -16 -16 -16 -16 -16 -16 -16 230 230 230 231 232 231 232 232 229 229 230 230 231 232 236 -16 -16 -16 -16 -16 -16 -16 283 285 286 288 288 288 287 286 -16 -16 -16 -16 -16 -16 -16 229 227 226 224 228 227 225 224 225 225 225 225 225 223 225 -16 -16 -16 -16 -16 -16 -16 -16 -16 -16 -16 -16 -16 -16 -16 -16 -16 -16 -16 -16 -16 -16 -16 -16 -16 -16 494 507 504 507 509 513 511 515 516 518 517 517 516 516 515 516 516 515 512 517 520 515 514 516 515 514 514 513 512 512 511 511 510 509 509 509 508 507 505 507 504 502 500 497 496 498 -16 496 494 497 -16 389 392 392 392 394 404 412 -16 -16 -16 -16 -16 -16 -16 -16 -16 -16 390 383 384 382 381 381 381 380 380 379 380 379 -16 -16 -16 -16 -16 -16 -16 -16 -16 -16 -16 -16 390 390 390 392 390 389 394 388 -16 -16 -16 -16 -16 -16 -16 -16 -16 -16 387 382 386 386 385 385 385 384 385 385 385 385 384 385 384 383 386 385 386 385 384 384 384 386 387 385 385 381 387 -16 -16 -16 -16 -16 -16 -16 -16 -16 -16 -16 383 382 382 383 385 383 383 382 -16 -16 -16 -16 -16 -16 -16 -16 -16 389 390 391 390 390 389 388 388 388 388 386 382 383 378 381 -16 -16 387 387 391 395 392 391 391 390 389 390 390 389 386 388 391 387 389 389 389 390 391 391 392 392 396 398 -16 -16 -16 -16 -16 -16 246 241 243 244 244 244 244 244 244 244 246 246 245 245 245 246 246 246 247 -16 -16 -16 -16
    -16 -16 -16 -16 -16 -16 -16 -16 -16 -16 -16 -16 -16 -16 -16 -16 -16 -16 -16 -16 -16 -16 -16 -16 -16 -16 -16 -16 -16 -16 -16 -16 -16 -16 -16 -16 -16 -16 -16 -16 -16 -16 -16 -16 -16 -16 -16 -16 -16 -16 -16 -16 -16 -16 -16 -16 -16 -16 -16 -16 -16 -16 -16 -16 -16 -16 -16 230 231 231 232 233 232 233 233 231 231 231 231 232 234 238 -16 -16 -16 -16 -16 -16 -16 283 284 286 287 288 287 287 286 -16 -16 -16 -16 -16 -16 -16 230 228 227 225 228 228 226 225 224 225 225 225 225 224 225 -16 -16 -16 -16 -16 -16 -16 -16 -16 -16 -16 -16 -16 -16 -16 -16 -16 -16 -16 -16 -16 -16 -16 -16 -16 -16 496 506 504 504 505 511 510 515 516 518 516 517 517 516 515 516 516 516 512 520 520 515 514 516 515 513 514 513 512 512 511 511 510 509 509 508 507 506 504 505 502 501 498 496 496 498 -16 -16 -16 384 382 387 390 391 390 391 399 410 410 -16 -16 -16 -16 -16 -16 -16 -16 -16 389 382 382 381 380 380 380 379 380 379 380 381 -16 -16 -16 -16 -16 -16 -16 -16 -16 -16 -16 -16 -16 392 391 393 -16 -16 395 391 -16 -16 -16 -16 -16 -16 -16 -16 -16 -16 386 381 385 385 384 385 385 384 384 385 385 385 385 386 385 383 385 385 386 385 384 384 383 385 387 386 385 380 388 -16 -16 -16 -16 -16 385 -16 -16 -16 383 383 383 382 382 383 385 384 384 383 -16 -16 -16 -16 -16 -16 -16 -16 -16 390 390 392 390 391 390 389 389 388 389 387 383 384 378 381 383 387 385 385 390 394 392 391 391 390 389 390 389 389 386 388 391 387 389 390 390 390 391 390 392 391 396 398 398 -16 -16 -16 -16 -16 -16 238 242 -16 245 245 244 244 244 243 245 246 245 244 245 245 245 245 246 -16 -16 -16 -16
    -16 -16 -16 -16 -16 -16 -16 -16 -16 -16 -16 -16 -16 -16 -16 -16 -16 -16 -16 -16 -16 -16 -16 -16 -16 -16 -16 -16 -16 -16 -16 -16 -16 -16 -16 -16 -16 -16 -16 -16 -16 -16 -16 -16 -16 -16 -16 -16 -16 -16 -16 -16 -16 -16 -16 -16 -16 -16 -16 -16 -16 -16 -16 -16 -16 -16 -16 231 231 231 233 233 232 234 234 232 233 232 231 233 235 240 239 -16 -16 -16 -16 -16 -16 283 284 285 287 288 287 287 287 -16 -16 -16 -16 234 235 234 -16 229 228 226 229 229 227 226 225 226 225 225 226 224 226 -16 -16 -16 -16 -16 -16 -16 -16 -16 -16 -16 -16 -16 -16 -16 -16 -16 -16 -16 -16 -16 -16 -16 -16 -16 -16 496 503 502 502 502 506 506 510 515 518 516 517 517 517 516 517 518 517 514 521 520 515 515 516 515 514 514 513 512 512 511 511 509 508 508 507 506 506 504 503 501 501 497 495 496 499 -16 382 383 383 381 386 389 389 388 386 -16 -16 411 -16 -16 -16 -16 -16 -16 -16 -16 -16 389 383 382 381 381 381 380 380 380 380 381 381 -16 -16 -16 -16 -16 -16 -16 -16 -16 -16 -16 -16 -16 -16 -16 394 -16 -16 -16 390 -16 -16 -16 -16 -16 -16 -16 -16 -16 -16 388 381 386 386 385 385 385 383 384 384 385 384 384 386 384 383 384 384 386 385 384 384 383 384 387 386 386 381 -16 -16 -16 -16 -16 -16 383 -16 380 -16 382 383 383 383 382 383 385 384 384 -16 -16 -16 -16 -16 -16 -16 -16 -16 -16 390 391 391 390 390 389 389 389 388 389 386 383 385 379 381 384 -16 387 388 391 394 391 391 390 390 388 389 389 389 384 387 391 387 390 391 391 391 391 391 392 392 397 398 398 -16 396 -16 -16 -16 -16 -16 -16 -16 246 246 244 244 244 244 245 246 245 244 244 245 245 245 246 -16 -16 -16 -16
    -16 -16 -16 -16 -16 -16 -16 -16 -16 -16 -16 -16 -16 -16 -16 -16 -16 -16 -16 -16 -16 -16 -16 -16 -16 -16 -16 -16 -16 -16 -16 -16 -16 -16 -16 -16 -16 -16 -16 -16 -16 -16 -16 -16 -16 -16 -16 -16 -16 -16 -16 -16 -16 -16 -16 -16 -16 -16 -16 -16 -16 -16 -16 -16 -16 -16 -16 231 232 232 233 234 233 234 234 232 233 232 232 234 236 240 -16 -16 -16 -16 -16 -16 -16 -16 284 285 287 288 287 287 287 -16 -16 -16 -16 234 235 235 -16 230 229 227 229 -16 228 226 225 227 225 226 227 225 226 -16 -16 -16 -16 -16 -16 -16 -16 -16 -16 -16 -16 -16 -16 -16 -16 -16 -16 -16 -16 -16 -16 -16 -16 -16 -16 497 502 501 501 500 505 505 508 515 518 516 517 517 517 516 518 518 518 517 522 519 515 516 516 515 514 513 513 512 511 511 510 508 507 507 506 505 505 503 502 500 500 496 494 496 499 -16 381 381 381 380 384 388 388 385 379 369 -16 -16 -16 -16 -16 -16 -16 -16 -16 -16 -16 388 382 382 381 381 381 381 380 381 380 381 382 -16 -16 -16 -16 -16 -16 -16 -16 -16 -16 -16 -16 -16 391 389 393 -16 -16 393 390 397 -16 -16 -16 -16 -16 -16 -16 -16 -16 390 382 387 386 385 385 385 384 384 384 385 383 383 386 384 382 383 383 386 384 384 384 382 384 386 387 386 -16 -16 -16 -16 -16 -16 -16 384 381 381 381 383 383 383 383 383 383 384 384 384 -16 -16 -16 -16 -16 -16 -16 -16 -16 -16 390 391 391 390 390 389 389 389 388 388 386 383 385 379 381 384 -16 389 390 392 396 393 392 392 390 389 389 388 387 381 382 389 386 389 391 392 392 392 392 393 392 396 397 397 397 396 395 397 -16 -16 -16 -16 -16 -16 246 244 244 244 244 245 246 245 244 244 245 246 246 -16 -16 -16 -16 -16
    -16 -16 -16 -16 -16 -16 -16 -16 -16 -16 -16 -16 -16 -16 -16 -16 -16 -16 -16 -16 -16 -16 -16 -16 -16 -16 -16 -16 -16 -16 -16 -16 -16 -16 -16 -16 -16 -16 -16 -16 -16 -16 -16 -16 -16 -16 -16 -16 -16 -16 -16 -16 -16 -16 -16 -16 -16 -16 -16 -16 -16 -16 -16 -16 -16 -16 -16 232 232 232 233 234 233 234 234 232 233 232 232 234 237 -16 -16 -16 -16 -16 -16 -16 -16 -16 284 285 287 288 287 287 286 -16 -16 -16 -16 234 235 236 233 231 230 229 231 -16 229 227 225 227 224 226 228 226 227 -16 -16 -16 -16 -16 -16 -16 -16 -16 -16 -16 -16 -16 -16 -16 -16 -16 -16 -16 -16 -16 -16 -16 -16 -16 497 497 501 500 500 499 504 503 506 514 517 516 517 518 518 517 519 519 519 518 522 519 516 517 516 515 514 513 512 511 511 511 509 507 505 505 505 504 503 503 501 499 499 495 494 497 499 -16 381 381 380 379 384 387 387 385 -16 371 -16 -16 -16 -16 -16 -16 -16 -16 -16 -16 -16 387 382 382 381 381 381 380 380 380 380 381 381 -16 -16 -16 -16 -16 -16 -16 -16 -16 391 392 391 392 390 388 391 390 388 392 389 394 -16 -16 -16 -16 -16 -16 -16 -16 -16 -16 382 387 387 385 385 385 384 384 384 384 383 383 386 384 382 382 382 387 384 384 384 382 383 386 386 386 -16 -16 -16 -16 -16 -16 388 384 383 382 382 384 384 384 384 383 384 384 385 385 -16 -16 -16 394 -16 395 394 395 -16 -16 390 391 391 390 390 389 389 388 387 388 386 383 385 379 383 387 389 391 392 393 396 394 393 394 393 391 391 390 389 383 384 389 386 389 391 391 391 393 393 393 393 396 397 396 397 396 395 397 398 -16 -16 -16 -16 -16 246 244 244 243 243 244 246 246 244 245 245 247 247 -16 -16 -16 -16 -16
    -16 -16 -16 -16 -16 -16 -16 -16 -16 -16 -16 -16 -16 -16 -16 -16 -16 -16 -16 -16 -16 -16 -16 -16 -16 -16 -16 -16 -16 -16 -16 -16 -16 -16 -16 -16 -16 -16 -16 -16 -16 -16 -16 -16 -16 -16 -16 -16 -16 -16 -16 -16 -16 -16 -16 -16 -16 -16 -16 -16 -16 -16 -16 -16 -16 -16 -16 232 232 233 234 234 -16 234 235 232 233 232 232 235 -16 -16 -16 -16 -16 -16 -16 -16 -16 -16 284 285 287 288 286 286 286 -16 -16 -16 -16 234 235 236 233 -16 231 230 231 -16 230 228 226 228 225 227 229 227 229 -16 -16 -16 -16 -16 -16 -16 -16 -16 -16 -16 -16 -16 -16 -16 -16 -16 -16 -16 -16 -16 -16 -16 -16 -16 498 497 500 499 499 497 502 502 504 511 516 517 518 518 518 518 520 520 521 520 522 518 516 517 516 515 514 513 512 511 511 511 509 507 505 504 503 503 503 503 501 499 499 495 494 497 499 497 381 382 381 378 384 387 386 384 -16 371 -16 -16 -16 -16 -16 -16 -16 -16 -16 -16 -16 387 382 382 381 381 380 380 379 380 380 380 380 -16 -16 -16 -16 -16 -16 -16 -16 -16 392 391 -16 391 390 388 392 391 -16 395 393 397 -16 -16 -16 -16 -16 -16 -16 -16 -16 -16 384 388 387 386 385 385 384 384 383 384 383 383 386 384 382 382 382 387 384 384 383 382 383 385 385 386 -16 -16 -16 -16 -16 -16 -16 385 385 384 383 384 384 384 384 383 385 384 386 387 -16 -16 392 393 393 393 392 -16 392 392 390 391 391 390 390 389 388 388 387 388 386 383 385 380 384 388 390 391 392 392 395 394 394 395 395 393 394 393 391 388 389 391 388 390 392 391 392 394 393 393 393 396 396 395 397 396 396 397 398 398 -16 -16 -16 -16 -16 243 242 242 241 244 246 246 244 244 245 247 -16 -16 -16 -16 -16 -16
    -16 -16 -16 -16 -16 -16 -16 -16 -16 -16 -16 -16 -16 -16 -16 -16 -16 -16 -16 -16 -16 -16 -16 -16 -16 -16 -16 -16 -16 -16 -16 -16 -16 -16 -16 -16 -16 -16 -16 -16 -16 -16 -16 -16 -16 -16 -16 -16 -16 -16 -16 -16 -16 -16 -16 -16 -16 -16 -16 -16 -16 -16 -16 -16 -16 -16 -16 232 233 233 234 234 234 235 235 233 234 233 232 235 -16 -16 -16 -16 -16 -16 -16 -16 -16 -16 285 285 288 287 286 286 286 -16 -16 -16 -16 233 234 236 233 231 231 230 232 -16 230 228 227 228 225 227 230 -16 -16 -16 -16 -16 -16 -16 -16 -16 -16 -16 -16 -16 -16 -16 -16 -16 -16 -16 -16 -16 -16 -16 -16 -16 -16 -16 499 498 500 499 500 497 503 503 504 510 515 516 517 517 517 517 519 520 520 520 522 517 515 517 516 514 513 513 512 511 511 511 509 507 505 504 503 503 502 502 500 498 499 495 494 498 498 497 -16 383 383 378 384 385 384 383 -16 374 -16 -16 -16 -16 -16 -16 -16 -16 -16 -16 -16 387 382 382 381 381 381 380 380 380 380 380 379 -16 -16 -16 -16 -16 -16 -16 -16 -16 393 -16 -16 391 391 389 392 392 393 396 396 399 399 401 403 -16 -16 -16 -16 -16 -16 -16 386 388 388 387 385 384 384 384 383 383 382 382 386 384 382 382 382 387 384 384 384 382 383 385 385 385 -16 -16 -16 -16 -16 -16 388 386 386 385 384 385 385 385 385 383 385 384 387 389 390 391 390 391 391 391 391 392 391 391 389 391 391 390 390 389 388 388 387 388 386 383 385 381 386 389 390 391 393 392 395 393 393 394 395 394 395 392 392 390 391 391 390 391 392 391 392 394 393 393 393 396 395 395 396 396 395 397 397 398 396 -16 -16 -16 -16 -16 243 243 242 243 246 246 243 242 244 246 -16 -16 -16 -16 -16 -16
    -16 -16 -16 -16 -16 -16 -16 -16 -16 -16 -16 -16 -16 -16 -16 -16 -16 -16 -16 -16 -16 -16 -16 -16 -16 -16 -16 -16 -16 -16 -16 -16 -16 -16 -16 -16 -16 -16 -16 -16 -16 -16 -16 -16 -16 -16 -16 -16 -16 -16 -16 -16 -16 -16 -16 -16 -16 -16 -16 -16 -16 -16 -16 -16 -16 -16 -16 233 233 234 234 235 234 235 235 233 235 234 -16 -16 -16 -16 -16 -16 -16 -16 -16 -16 -16 -16 285 286 288 287 287 287 287 -16 -16 -16 -16 233 234 236 233 231 231 230 232 -16 230 229 227 229 226 228 231 -16 -16 -16 -16 -16 -16 -16 -16 -16 -16 -16 -16 -16 -16 -16 -16 -16 -16 -16 -16 -16 -16 -16 -16 -16 -16 500 499 498 500 499 500 497 503 503 505 511 514 515 516 517 517 516 518 519 520 520 521 517 515 517 515 514 513 513 512 510 511 511 508 506 505 504 503 503 502 502 499 497 499 494 494 498 498 497 496 -16 384 377 383 381 -16 -16 -16 -16 -16 -16 -16 -16 -16 -16 -16 -16 -16 -16 -16 -16 381 381 380 380 380 380 379 379 380 380 379 -16 -16 -16 -16 -16 -16 -16 -16 -16 397 -16 -16 -16 -16 388 392 393 393 396 396 400 402 402 403 -16 -16 -16 -16 -16 -16 -16 388 388 388 388 386 385 385 385 383 383 381 382 386 384 382 382 383 387 385 384 384 382 384 386 385 386 -16 -16 -16 -16 -16 -16 387 386 387 386 385 385 385 385 385 384 385 384 387 390 391 391 390 391 -16 392 391 -16 391 391 389 391 390 390 390 389 388 388 387 389 386 385 386 382 386 389 390 391 392 392 394 393 392 393 395 394 395 393 -16 391 391 392 -16 392 392 392 392 394 393 394 394 396 394 394 396 396 395 396 397 397 396 399 -16 -16 -16 -16 244 244 243 243 246 245 242 239 241 245 -16 -16 -16 -16 -16 -16
    -16 -16 -16 -16 -16 -16 -16 -16 -16 -16 -16 -16 -16 -16 -16 -16 -16 -16 -16 -16 -16 -16 -16 -16 -16 -16 -16 -16 -16 -16 -16 -16 -16 -16 -16 -16 -16 -16 -16 -16 -16 -16 -16 -16 -16 -16 -16 -16 -16 -16 -16 -16 -16 -16 -16 -16 -16 -16 -16 -16 -16 -16 -16 -16 -16 -16 -16 233 234 234 234 235 235 235 235 233 235 235 -16 -16 -16 -16 -16 -16 -16 -16 -16 287 287 -16 285 286 288 287 287 287 287 -16 -16 -16 -16 233 234 235 233 231 230 230 232 -16 231 229 227 229 226 229 232 -16 -16 -16 -16 -16 -16 -16 -16 -16 -16 -16 -16 -16 -16 -16 -16 -16 -16 -16 -16 -16 -16 -16 -16 -16 -16 498 498 498 499 499 499 496 501 502 505 512 514 515 515 516 516 516 518 519 520 520 521 516 515 517 515 513 513 512 511 509 510 510 507 506 504 503 502 502 501 501 499 497 498 494 494 498 498 496 496 -16 384 376 -16 -16 -16 -16 -16 -16 -16 -16 -16 -16 -16 -16 -16 -16 -16 -16 -16 -16 -16 -16 378 378 -16 378 377 378 379 378 380 -16 -16 -16 -16 -16 -16 -16 -16 -16 399 397 398 -16 -16 384 390 392 391 393 395 397 399 397 399 -16 -16 -16 -16 -16 -16 -16 390 389 389 389 387 386 386 385 384 383 381 383 388 384 382 382 383 387 385 385 385 382 385 386 386 385 379 383 -16 -16 -16 -16 387 387 387 386 385 385 385 385 385 384 384 385 387 390 392 392 390 392 392 392 391 -16 391 391 389 391 390 389 389 389 388 387 387 388 385 386 386 384 387 389 391 391 392 392 393 393 393 394 395 394 394 393 -16 -16 391 -16 -16 393 393 393 393 395 394 394 394 396 394 394 396 396 395 396 397 397 396 398 -16 -16 -16 -16 242 242 240 241 244 244 240 238 239 244 -16 -16 -16 -16 -16 -16
    -16 -16 -16 -16 -16 -16 -16 -16 -16 -16 -16 -16 -16 -16 -16 -16 -16 -16 -16 -16 -16 -16 -16 -16 -16 -16 -16 -16 -16 -16 -16 -16 -16 -16 -16 -16 -16 -16 -16 -16 -16 -16 -16 -16 -16 -16 -16 -16 -16 -16 -16 -16 -16 -16 -16 -16 -16 -16 -16 -16 -16 -16 -16 -16 -16 -16 -16 233 233 234 234 234 234 234 234 233 235 235 -16 -16 -16 -16 -16 -16 -16 -16 287 288 287 287 286 286 288 286 286 286 286 -16 -16 -16 231 232 233 235 234 231 230 232 234 236 236 231 229 231 227 230 240 -16 -16 -16 -16 -16 -16 -16 -16 -16 -16 -16 -16 -16 -16 -16 -16 -16 -16 -16 483 483 482 485 -16 492 -16 497 497 498 498 499 499 496 501 502 505 510 511 514 514 514 514 514 515 519 520 520 521 515 515 516 513 512 512 511 510 508 509 507 505 503 503 502 502 502 501 500 497 496 498 494 494 498 497 496 496 498 383 375 -16 -16 -16 -16 -16 -16 -16 -16 -16 -16 -16 -16 -16 -16 -16 -16 -16 -16 -16 -16 380 381 -16 380 380 381 382 380 380 -16 -16 -16 -16 -16 -16 -16 -16 -16 402 403 405 -16 -16 -16 -16 -16 -16 -16 -16 -16 -16 -16 394 394 390 384 386 388 391 -16 -16 390 -16 -16 389 387 385 385 385 384 382 383 389 384 382 382 383 387 385 384 384 382 385 386 386 385 379 382 382 -16 -16 381 386 386 386 386 385 385 386 386 386 385 385 386 388 391 391 391 390 392 392 392 390 -16 390 390 389 391 389 388 388 388 387 386 386 387 385 386 387 386 388 390 391 392 393 393 394 394 393 394 395 395 395 394 -16 -16 -16 -16 -16 394 394 393 394 396 394 395 395 396 395 394 397 396 395 396 396 397 396 398 400 -16 -16 -16 241 240 238 239 243 243 239 237 239 244 -16 -16 -16 -16 -16 -16
    -16 -16 -16 -16 -16 -16 -16 -16 -16 -16 -16 -16 -16 -16 -16 -16 -16 -16 -16 -16 -16 -16 -16 -16 -16 -16 -16 -16 -16 -16 -16 -16 -16 -16 -16 -16 -16 -16 -16 -16 -16 -16 -16 -16 -16 -16 -16 -16 -16 -16 -16 -16 -16 -16 -16 -16 -16 -16 -16 -16 -16 -16 -16 -16 -16 -16 -16 234 234 235 234 234 234 234 234 232 236 -16 -16 -16 -16 -16 -16 -16 -16 -16 288 289 288 288 286 286 287 286 286 286 -16 -16 -16 -16 231 232 232 235 234 231 230 233 234 237 238 233 231 231 228 231 246 -16 -16 -16 -16 -16 -16 -16 -16 -16 -16 -16 -16 -16 -16 -16 -16 -16 -16 -16 -16 -16 483 486 489 491 494 496 497 498 497 498 498 495 499 501 504 508 509 510 510 510 510 510 509 512 517 518 520 514 513 514 511 511 510 510 508 506 507 506 504 503 502 502 501 502 501 499 497 496 498 494 494 498 498 496 496 498 -16 372 -16 -16 -16 -16 -16 -16 -16 -16 -16 -16 -16 -16 -16 -16 -16 -16 -16 -16 -16 386 384 384 383 383 385 384 382 380 -16 -16 -16 221 222 223 221 222 222 221 -16 -16 -16 -16 -16 -16 -16 -16 -16 -16 -16 -16 -16 -16 -16 393 391 -16 388 389 392 -16 -16 -16 -16 -16 -16 390 388 387 387 386 382 386 389 384 382 382 383 387 384 384 384 382 384 384 385 384 380 382 381 -16 -16 381 386 386 386 386 385 385 386 386 386 385 385 386 387 391 390 389 389 391 -16 -16 -16 -16 -16 -16 -16 390 387 388 388 388 387 386 386 387 385 385 386 388 387 389 390 392 393 394 394 394 394 394 395 395 394 393 -16 -16 -16 391 -16 393 394 393 393 396 395 395 396 396 395 394 397 396 396 397 397 397 396 399 400 -16 -16 -16 -16 -16 239 241 246 247 238 -16 -16 -16 -16 -16 -16 -16 -16 -16
    -16 -16 -16 -16 -16 -16 -16 -16 -16 -16 -16 -16 -16 -16 -16 -16 -16 -16 -16 -16 -16 -16 -16 -16 -16 -16 -16 -16 -16 -16 -16 -16 -16 -16 -16 -16 -16 -16 -16 -16 -16 -16 -16 -16 -16 -16 -16 -16 -16 -16 -16 -16 -16 -16 -16 -16 -16 -16 -16 -16 -16 -16 -16 -16 -16 -16 -16 234 235 235 235 234 235 234 234 233 237 -16 -16 -16 -16 -16 -16 290 289 288 288 289 288 288 287 287 287 286 286 286 -16 -16 -16 -16 232 233 232 234 232 230 228 228 226 228 226 223 224 223 224 232 -16 -16 -16 -16 -16 -16 -16 -16 -16 -16 -16 -16 -16 -16 -16 -16 -16 -16 -16 -16 -16 -16 484 486 490 492 494 495 497 498 497 498 498 496 499 502 504 508 508 509 508 508 507 508 506 508 510 513 518 513 511 512 510 509 509 509 507 506 507 506 505 504 504 503 501 502 501 498 496 495 498 494 494 498 498 497 497 498 -16 370 374 -16 -16 393 -16 386 386 386 385 -16 382 -16 -16 -16 -16 -16 -16 -16 -16 -16 384 383 -16 -16 -16 -16 -16 -16 -16 218 227 221 221 223 221 221 222 222 222 -16 -16 -16 -16 -16 -16 -16 -16 -16 -16 -16 -16 -16 -16 -16 -16 259 -16 -16 -16 -16 -16 -16 -16 -16 -16 387 387 388 -16 -16 -16 387 390 384 382 382 383 386 384 384 383 381 383 383 384 384 380 382 -16 -16 -16 -16 -16 385 386 386 385 386 387 386 386 385 385 385 -16 -16 -16 386 388 -16 -16 -16 -16 -16 -16 -16 -16 -16 385 387 388 388 387 386 386 388 387 386 387 387 386 386 387 389 390 391 391 391 392 393 394 394 394 392 391 392 391 391 392 393 394 392 393 396 394 395 395 396 395 394 397 397 396 397 397 397 396 399 401 -16 -16 -16 -16 -16 -16 -16 -16 -16 -16 -16 -16 -16 -16 -16 -16 -16 -16 -16
    -16 -16 -16 -16 -16 -16 -16 -16 -16 -16 -16 -16 -16 -16 -16 -16 -16 -16 -16 -16 -16 -16 -16 -16 -16 -16 -16 -16 -16 -16 -16 -16 -16 -16 -16 -16 -16 -16 -16 -16 -16 -16 -16 -16 -16 -16 -16 -16 -16 -16 -16 -16 -16 -16 -16 -16 -16 -16 -16 -16 -16 -16 -16 -16 -16 -16 -16 235 236 236 236 235 236 235 236 -16 -16 -16 -16 -16 292 292 291 291 290 289 289 289 288 288 287 286 286 285 285 285 -16 -16 -16 232 231 232 231 231 229 229 229 227 224 225 220 218 219 218 221 231 -16 -16 -16 -16 -16 -16 -16 -16 -16 -16 -16 -16 -16 -16 -16 -16 -16 -16 -16 -16 -16 -16 -16 -16 -16 493 495 495 496 497 496 498 498 495 498 502 503 507 508 508 507 508 507 507 506 508 509 510 517 511 509 510 509 508 507 508 506 505 506 506 505 504 504 504 502 503 502 497 496 495 498 495 494 498 499 497 497 499 -16 367 374 -16 -16 392 385 386 387 386 385 383 382 -16 -16 -16 -16 -16 -16 -16 -16 -16 -16 381 -16 -16 -16 -16 -16 -16 220 221 225 222 221 223 221 221 222 222 221 219 -16 -16 -16 -16 -16 -16 -16 220 222 224 225 229 -16 -16 245 253 -16 -16 -16 -16 -16 -16 -16 -16 -16 -16 -16 -16 -16 -16 -16 390 390 385 383 384 384 386 384 384 383 381 383 383 383 383 380 382 -16 -16 -16 -16 -16 -16 -16 385 384 386 387 386 385 385 -16 -16 -16 -16 -16 -16 387 -16 -16 -16 -16 -16 -16 -16 -16 -16 -16 387 388 389 388 387 388 390 389 386 387 386 386 383 384 385 386 388 389 389 390 391 394 395 394 393 393 392 393 392 393 393 393 392 393 395 394 395 396 396 394 394 398 397 396 397 397 397 396 399 401 -16 -16 -16 -16 -16 -16 -16 -16 -16 -16 -16 -16 -16 -16 -16 -16 -16 -16 -16</data></disp>
</opencv_storage>
